ply
format ascii 1.0
comment VCGLIB generated
element vertex 1785
property float x
property float y
property float z
element face 0
property list uchar int vertex_indices
end_header
8.89627 -0.51547 -5.04381 
8.87015 -0.976532 -5.03953 
8.72018 -0.997209 -4.97415 
8.77098 -1.02676 -5.05395 
8.73911 -0.582571 -5.05947 
8.66682 -1.04781 -5.09612 
8.75767 -0.913709 -5.08011 
8.59201 -0.938924 -5.10325 
8.36899 1.25468 -5.05392 
8.09605 1.13006 -5.09554 
8.00563 1.25459 -5.10076 
8.59112 1.29522 -5.09738 
8.58114 1.21119 -5.08545 
8.55093 1.30771 -5.11167 
8.66802 0.934628 -5.10402 
8.58523 0.792231 -5.10657 
8.7594 0.901054 -5.03141 
-1.84833 1.98602 -8.28877 
-1.83752 2.02103 -8.30248 
-1.61156 2.04669 -8.21823 
-1.61175 2.04812 -8.21895 
-1.42723 1.66138 -8.51106 
-1.91389 1.99459 -8.23532 
-1.68983 1.8715 -8.39923 
-1.69134 1.87081 -8.40122 
-1.41693 1.75996 -8.44667 
-1.38564 2.10723 -8.22771 
-1.57993 1.71841 -8.4356 
-1.42643 1.84388 -8.47878 
-1.58856 1.69599 -8.34573 
-1.82618 2.01908 -8.21177 
-1.58045 1.99694 -8.28545 
-1.42599 1.66098 -8.51896 
-1.57168 1.74383 -8.4 
-1.86448 1.81218 -8.23296 
-1.89255 1.81262 -8.57957 
-0.660722 1.99517 -8.22816 
-1.28961 1.92948 -8.27767 
-0.877429 1.6577 -8.39178 
-0.836286 1.6273 -8.41389 
-0.707357 1.92039 -8.26169 
-0.650637 1.91052 -8.26393 
-0.760985 1.89377 -8.26283 
-0.733423 1.86174 -8.26436 
-0.677527 1.85328 -8.31373 
-1.24893 1.76161 -8.42885 
-0.866339 1.71903 -8.35294 
-0.742169 1.62854 -8.3963 
-0.775121 1.58505 -8.44734 
-0.778095 1.5866 -8.52882 
-0.814119 1.55779 -8.46479 
-1.00255 1.46876 -8.44286 
-0.634409 1.91132 -8.22977 
-0.634409 1.91132 -8.22977 
-1.25291 1.91788 -8.28057 
-1.06903 1.63554 -8.47255 
-0.885864 1.46021 -8.53195 
-0.790549 1.72613 -8.40398 
-1.20987 1.60187 -8.48661 
-1.09153 1.46753 -8.54493 
-0.970838 2.08895 -8.23917 
-1.20981 1.97085 -8.20727 
-0.531727 1.6417 -8.37234 
-0.531727 1.6417 -8.37234 
-0.182599 1.5035 -8.25339 
-1.29967 1.65986 -8.48681 
-0.689654 1.63667 -8.38165 
-0.829278 1.62639 -8.41212 
-0.885198 1.61803 -8.44567 
-0.812629 1.47461 -8.50808 
-0.761346 1.89587 -8.26302 
-0.670621 1.85401 -8.29931 
-1.2551 1.66366 -8.44765 
-0.814401 1.55918 -8.46498 
-1.35473 1.66801 -8.45754 
-0.793685 1.72744 -8.39532 
-0.92792 1.56073 -8.49647 
-0.0425639 1.49965 -8.34632 
-0.66786 1.99193 -8.28854 
-0.693375 1.97604 -8.21838 
-1.28671 1.92946 -8.27021 
-0.705931 1.92019 -8.25611 
-0.85045 1.71939 -8.37371 
-0.557206 1.63458 -8.33049 
0.219452 1.51773 -8.66949 
-2.95746 2.80563 -7.32764 
-3.26112 2.50471 -7.10007 
-3.26406 2.50121 -7.07196 
-3.03661 2.30881 -7.48081 
-3.59542 2.30636 -6.85619 
-3.73544 2.30565 -6.69011 
-2.96745 2.19436 -7.51382 
-3.1446 2.05206 -7.35303 
-3.15039 2.05313 -7.40033 
-3.98898 2.00675 -7.02509 
-3.63522 1.83118 -6.92954 
-4.14996 1.74655 -6.68337 
-4.06002 1.63705 -6.72515 
-4.03435 1.61951 -6.66339 
-4.0686 1.58003 -6.7213 
-3.8742 1.57215 -6.77646 
-3.60113 1.55357 -6.8984 
-2.99644 2.86935 -7.32112 
-3.00104 2.87702 -7.43484 
-3.11466 2.73612 -7.25371 
-3.05807 2.4672 -7.30731 
-3.09076 2.42034 -7.3576 
-2.92032 2.33869 -7.53977 
-3.08195 2.32277 -7.37754 
-2.97253 2.31148 -7.48003 
-3.23355 2.25153 -7.22124 
-3.69302 2.18514 -6.70303 
-3.75121 2.18161 -6.71822 
-3.59332 2.15335 -6.84 
-3.59445 2.1563 -6.8453 
-3.48416 2.12534 -6.99679 
-3.48101 2.11585 -6.9717 
-3.5649 2.09536 -6.90301 
-3.75334 2.09239 -6.7896 
-3.31495 2.01843 -7.14856 
-3.26146 2.00782 -7.17354 
-3.0539 1.99892 -7.37523 
-3.05915 1.99928 -7.41588 
-3.58783 1.98276 -6.83265 
-3.58675 1.98033 -6.82266 
-3.74629 1.98236 -6.76084 
-3.19208 1.96619 -7.22499 
-3.62819 1.95582 -6.82288 
-3.32445 1.94217 -7.10177 
-3.52842 1.93941 -6.89223 
-3.86209 1.89351 -6.74941 
-3.93043 1.89487 -6.66455 
-3.77037 1.89127 -6.8049 
-3.70273 1.86301 -6.79938 
-3.67845 1.80447 -6.89188 
-4.22634 1.70041 -6.68082 
-4.25584 1.65538 -6.68103 
-3.94037 1.58178 -6.75705 
-3.94321 1.57864 -6.69848 
-3.39339 1.50497 -7.02097 
-3.17887 2.49962 -7.21929 
-3.61619 2.46195 -6.74103 
-3.15393 2.43606 -7.25341 
-3.22812 2.39032 -7.23401 
-3.29471 2.30654 -7.17121 
-3.16331 2.27416 -7.26835 
-3.16315 2.27161 -7.24334 
-3.68847 2.2519 -6.7207 
-2.97887 2.25278 -7.47029 
-3.16348 2.17648 -7.34981 
-3.02117 2.15024 -7.45377 
-3.64504 2.10484 -6.75663 
-3.64664 2.11086 -6.80652 
-3.5198 1.99369 -6.87823 
-3.80619 1.95377 -6.72425 
-3.68073 1.93403 -6.81545 
-3.57866 1.84753 -6.95403 
-3.08705 1.53826 -7.20105 
-3.09209 1.53747 -7.14566 
-3.64857 1.50336 -6.83617 
-3.82689 2.34495 -6.71709 
-3.4914 2.39683 -6.85188 
-3.25532 1.85327 -7.02188 
-3.26628 1.8557 -7.21735 
-3.96909 1.6518 -6.66891 
-3.22408 1.81481 -7.12649 
-3.95498 1.61902 -6.73052 
-3.46557 1.63645 -6.99101 
-3.64818 2.78726 -6.73253 
-3.04803 2.75762 -7.87863 
-3.31436 2.37008 -7.03613 
-3.64052 2.21722 -6.71315 
-2.96206 2.19001 -7.52144 
-3.55799 2.08903 -6.86966 
-3.47613 2.09434 -6.91035 
-3.04208 2.03809 -7.39797 
-2.99641 2.02413 -7.45032 
-3.18517 2.4803 -7.20528 
-3.15831 2.43006 -7.21186 
-3.17887 2.33597 -7.25506 
-3.09662 2.18868 -7.36834 
-3.73776 2.03075 -6.72008 
-3.68449 1.80256 -6.80122 
-3.38854 1.50546 -7.01736 
-3.13375 1.48582 -7.20408 
-3.86996 1.67 -6.72578 
-3.18064 2.74256 -7.26983 
-3.34731 2.5856 -7.06544 
-3.59411 2.30683 -6.84715 
-3.05476 2.04531 -7.53664 
-3.17685 2.00882 -7.31369 
-3.98038 1.90512 -6.66435 
-3.85414 1.84067 -6.76328 
-3.82869 1.65471 -6.87837 
-4.16865 1.63022 -6.70124 
-4.16865 1.63022 -6.70124 
-4.23635 1.54628 -6.70935 
-4.23635 1.54628 -6.70935 
-3.31172 1.5379 -7.08592 
-3.31036 2.37588 -7.12686 
-2.91381 2.33231 -7.63907 
-3.06857 2.243 -7.5108 
-3.78109 2.17361 -7.0366 
-3.09219 2.14934 -7.43194 
-3.52496 2.11064 -6.94109 
-3.04132 2.09644 -7.47585 
-3.56677 2.09656 -6.93117 
-3.40956 2.05621 -7.11033 
-3.63273 2.03179 -6.8329 
-3.28038 1.94318 -7.25705 
-3.03361 2.36767 -7.44111 
-3.31662 2.31755 -6.94007 
-3.34423 2.32537 -7.1293 
-3.41988 2.28702 -7.00626 
-3.69683 2.18957 -6.8565 
-3.79214 2.06113 -6.71931 
-3.51877 1.99866 -6.89878 
-4.01206 1.55343 -6.68464 
-3.04901 1.48241 -7.2001 
-3.14275 2.5911 -7.31604 
-3.14275 2.5911 -7.31604 
-3.93301 2.01504 -6.73817 
-3.81256 1.68809 -6.80935 
-3.22858 1.81555 -7.19325 
-4.10105 2.98254 -6.32196 
-4.04397 2.77675 -6.27405 
-4.13114 2.672 -6.17035 
-4.12945 2.67097 -6.16968 
-3.71631 2.58929 -6.47216 
-3.8486 2.54674 -6.3706 
-3.8498 2.55575 -6.47796 
-3.83185 2.47247 -6.42175 
-3.71383 2.36887 -6.63903 
-4.09969 2.32469 -6.44499 
-4.01741 2.14587 -6.53295 
-4.33617 2.14 -6.15536 
-3.98418 2.07977 -6.43984 
-3.97503 2.06432 -6.52008 
-4.41277 2.06116 -6.20391 
-4.14376 2.05337 -6.42078 
-4.37949 2.05278 -6.21471 
-4.37472 2.05673 -6.23249 
-3.94326 1.95991 -6.62792 
-3.96714 1.94324 -6.65166 
-4.0893 1.9131 -6.5668 
-4.08996 1.9132 -6.56148 
-4.13002 1.91125 -6.46741 
-4.15044 1.57823 -6.63202 
-4.33075 1.58297 -6.583 
-3.97052 1.52116 -6.6425 
-3.84035 2.96787 -6.42988 
-3.89163 2.94642 -6.45346 
-3.70108 2.8275 -6.59371 
-3.92382 2.73107 -6.35421 
-4.02192 2.71076 -6.23088 
-4.02291 2.70737 -6.24753 
-3.79222 2.44009 -6.47693 
-3.95071 2.32182 -6.55175 
-4.10306 2.27837 -6.43092 
-4.21042 2.12816 -6.30947 
-4.03496 2.10324 -6.4649 
-4.06317 2.06156 -6.5082 
-4.05657 2.05845 -6.55052 
-4.23726 2.02745 -6.37354 
-4.37368 2.0134 -6.24323 
-3.94307 2.00773 -6.65241 
-4.05674 2.00141 -6.54163 
-4.29765 1.9321 -6.29582 
-4.03478 1.90231 -6.57729 
-4.20703 1.79028 -6.53602 
-4.25793 1.65231 -6.65506 
-4.28265 1.59445 -6.59636 
-4.42397 1.56582 -6.50883 
-4.24365 1.50178 -6.48293 
-4.26712 2.88996 -6.18492 
-4.17756 2.86661 -6.19529 
-4.3025 2.82231 -6.18098 
-3.75801 2.8155 -6.53572 
-4.22961 2.81067 -6.21338 
-3.72502 2.74544 -6.45451 
-4.08824 2.73663 -6.22632 
-3.94175 2.67008 -6.3473 
-3.79547 2.28653 -6.61045 
-4.17593 2.00889 -6.47324 
-4.17593 2.00889 -6.47324 
-4.28853 1.86262 -6.4641 
-4.24023 1.71664 -6.62933 
-4.01364 1.55255 -6.64483 
-4.02084 2.86132 -6.27881 
-4.25477 1.93877 -6.245 
-4.03913 1.78914 -6.6076 
-4.30867 1.76519 -6.52103 
-3.74088 2.96691 -6.42045 
-4.08162 1.9942 -6.37449 
-4.31112 2.6033 -6.08314 
-4.3402 1.7864 -6.61366 
-4.38467 1.51313 -6.35528 
-4.09619 2.97506 -6.30077 
-3.86035 2.75954 -6.36671 
-4.13194 2.56152 -6.20155 
-3.94078 2.3171 -6.48002 
-3.73275 2.30031 -6.61663 
-3.92924 2.15699 -6.45097 
-3.92924 2.15699 -6.45097 
-4.32953 2.14158 -6.20767 
-4.02837 2.06615 -6.41346 
-4.14144 2.0497 -6.4244 
-3.93959 2.00509 -6.59173 
-4.14883 1.95582 -6.42754 
-4.13112 1.91587 -6.48896 
-4.13067 1.8969 -6.42741 
-4.14286 1.74351 -6.63318 
-4.3267 1.5806 -6.52806 
-4.33719 1.5746 -6.46541 
-4.14303 1.57549 -6.64928 
-4.35992 1.54931 -6.50657 
-4.07624 2.81855 -6.26145 
-3.7564 2.8061 -6.42768 
-3.66642 2.78993 -6.49591 
-3.82168 2.76361 -6.33313 
-3.7661 2.1699 -6.51564 
-4.31896 1.50731 -6.37413 
-4.14953 1.48408 -6.51026 
-3.96041 2.92208 -6.2592 
-3.96041 2.92208 -6.2592 
-4.20159 2.07205 -6.25956 
-4.20159 2.07205 -6.25956 
-3.71604 2.80146 -6.62372 
-4.14333 2.25841 -6.34395 
-4.33474 1.58806 -6.61302 
-4.38197 1.55441 -6.65723 
-4.41748 2.81806 -6.09172 
-3.97155 2.06135 -6.5598 
-4.42263 2.01249 -6.25745 
-4.05619 2.00161 -6.56017 
-4.38005 1.98453 -6.25535 
-4.14817 1.78926 -6.58727 
-4.37828 1.61122 -6.4783 
-3.88949 2.92831 -6.44012 
-3.70556 2.85167 -6.55362 
-3.66106 2.80591 -6.65753 
-3.65704 2.80182 -6.63047 
-4.14641 2.79939 -6.24721 
-4.14641 2.79939 -6.24721 
-4.30281 1.94007 -6.44374 
-4.02874 2.85851 -6.33375 
-4.2684 2.38944 -6.30144 
-4.07099 1.9884 -6.46111 
-3.97905 1.64727 -6.43787 
-4.33147 1.78936 -6.55716 
-3.34439 4.39069 -6.69657 
-3.19154 4.3416 -6.75458 
-3.30896 4.27281 -6.73481 
-3.30359 4.12231 -6.863 
-3.30372 4.11719 -6.85934 
-3.03903 3.94204 -7.00471 
-3.26965 3.90867 -6.9572 
-3.65748 3.87623 -6.8235 
-3.66067 3.87463 -6.79701 
-3.56597 3.69063 -7.04766 
-3.04972 3.64783 -7.20989 
-3.81006 3.64519 -6.82396 
-3.07297 3.59144 -7.15925 
-3.66974 3.5708 -6.79965 
-3.30524 3.48534 -7.0509 
-3.24029 3.45786 -7.17746 
-3.06571 3.44999 -7.25449 
-3.02187 3.43579 -7.22794 
-3.33888 3.41422 -7.0538 
-3.28049 3.32995 -7.08439 
-3.63507 3.26505 -6.67811 
-3.0706 3.23413 -7.27202 
-2.99892 3.2191 -7.23618 
-2.93256 3.13911 -7.31602 
-2.93256 3.13911 -7.31602 
-3.00824 3.12333 -7.35882 
-2.93801 4.30126 -6.73295 
-2.93989 4.30318 -6.74313 
-3.24119 4.27335 -6.77702 
-3.23509 4.21606 -6.75712 
-3.276 4.15127 -6.7964 
-3.25686 4.12128 -6.82095 
-3.38852 3.99708 -6.95447 
-3.27296 3.95825 -6.94811 
-3.00517 3.94548 -6.95676 
-3.22558 3.93862 -6.97858 
-3.69233 3.94626 -6.82565 
-3.69233 3.94626 -6.82565 
-3.21482 3.88021 -7.02861 
-3.33199 3.84136 -7.00048 
-3.45958 3.83065 -6.94946 
-3.73662 3.76648 -6.76758 
-3.31753 3.76194 -7.02852 
-3.47173 3.76792 -6.97641 
-3.26966 3.68764 -7.07549 
-3.57494 3.68761 -7.03631 
-3.23334 3.63112 -7.12172 
-3.46232 3.58114 -7.00449 
-3.80103 3.56828 -6.79571 
-3.64188 3.54121 -6.91469 
-3.6461 3.53981 -6.91419 
-3.49693 3.53645 -7.02955 
-3.35485 3.50868 -7.09596 
-3.35547 3.50203 -7.06926 
-3.5568 3.50367 -6.91089 
-2.9306 3.47112 -7.24505 
-3.42744 3.46901 -6.99503 
-3.55952 3.45299 -6.94255 
-3.07427 3.40391 -7.26335 
-3.11607 3.39071 -7.19333 
-3.02098 3.37767 -7.21773 
-3.59189 3.2695 -6.77405 
-3.54628 3.24069 -6.73895 
-2.93117 3.05977 -7.37036 
-3.202 4.44428 -6.66802 
-3.4096 4.3047 -6.73429 
-3.29548 4.2278 -6.80385 
-3.67826 4.13175 -6.76631 
-2.96683 4.10171 -6.88506 
-3.56419 4.09107 -6.82223 
-3.35 4.05452 -6.85388 
-3.60042 4.01374 -6.81313 
-3.13837 3.90864 -7.02207 
-3.44053 3.89759 -6.92054 
-3.60637 3.90146 -6.79845 
-3.69725 3.8226 -6.78766 
-3.52302 3.79534 -6.92876 
-3.00624 3.74464 -7.13279 
-3.00511 3.74303 -7.15585 
-3.5867 3.74476 -6.89236 
-3.2344 3.72965 -7.07319 
-3.23678 3.73101 -7.11211 
-3.70096 3.70421 -6.85226 
-3.76838 3.6201 -6.8249 
-3.76911 3.61962 -6.81356 
-3.40746 3.61476 -6.97387 
-3.71599 3.57131 -6.8027 
-3.79511 3.5559 -6.81698 
-3.07591 3.47585 -7.2031 
-2.96248 3.35728 -7.28872 
-3.02344 3.34517 -7.23338 
-2.94332 3.23149 -7.27363 
-3.13023 4.02659 -6.91596 
-3.16295 3.84396 -7.07625 
-2.95902 3.702 -7.1234 
-3.28893 4.12021 -6.87991 
-2.92736 3.70737 -7.12359 
-3.24575 3.5987 -7.117 
-3.23139 3.54138 -7.12715 
-3.22456 3.52426 -7.07181 
-3.52741 4.35972 -6.76869 
-3.70218 4.29712 -6.72506 
-4.12778 3.69824 -6.73287 
-3.09392 4.41636 -6.70697 
-3.49161 3.73028 -6.94626 
-3.24542 3.61987 -6.97174 
-2.97546 3.47986 -7.22172 
-3.27773 3.33128 -7.10003 
-3.25049 4.45375 -6.70131 
-3.23143 4.21725 -6.78349 
-3.17839 4.14509 -6.82145 
-3.46913 4.13841 -6.81409 
-3.1916 4.08858 -6.86211 
-3.08479 3.91153 -7.01099 
-3.08323 3.83821 -6.98841 
-3.43158 3.45993 -6.94963 
-2.97765 4.35138 -6.70464 
-2.96658 4.09985 -6.86484 
-3.0622 3.75257 -7.26553 
-3.67718 3.46596 -6.68831 
-2.92498 3.06673 -7.31369 
-2.95321 3.88495 -7.03701 
-2.92356 3.70337 -7.12436 
-3.24916 3.59534 -7.12239 
-3.48479 3.59335 -7.02669 
-3.25168 3.50581 -6.89018 
-3.76548 3.41618 -6.76961 
-3.34456 4.215 -6.85692 
-3.04824 4.08469 -6.91914 
-2.9642 3.77673 -7.27615 
-3.6433 3.76293 -6.89785 
-2.92284 3.62685 -7.22581 
-3.06995 3.59963 -7.17317 
-3.6113 3.52737 -6.87511 
-3.58374 3.48727 -6.8316 
-3.05642 3.44811 -7.20554 
-3.28265 3.33621 -7.12685 
-3.61923 3.2096 -6.76509 
-3.20585 4.46197 -6.70292 
-3.205 4.46176 -6.70638 
-3.20398 4.30583 -6.77429 
-3.20162 4.30313 -6.78115 
-3.23555 4.239 -6.77453 
-3.47793 4.14969 -6.78042 
-3.46292 4.11842 -6.8856 
-3.38672 3.99706 -6.94455 
-3.7842 3.75901 -6.81881 
-3.23296 3.63049 -7.13586 
-3.63091 3.27413 -6.72926 
-2.92989 3.0605 -7.36666 
-3.29373 4.22772 -6.77385 
-3.35291 4.05847 -6.88841 
-3.64959 3.97977 -6.82406 
-3.64585 3.96885 -6.8571 
-3.27441 3.85567 -7.02576 
-3.76515 3.62631 -6.79374 
-3.42671 3.47322 -7.073 
-2.96097 3.35711 -7.28333 
-3.30188 4.49761 -6.66487 
-3.30188 4.49761 -6.66487 
-3.33626 4.51002 -6.76525 
-3.46035 4.2611 -6.65598 
-4.39866 3.42014 -6.41798 
-4.39784 3.38079 -6.3671 
-4.19378 3.17236 -6.33351 
-4.23743 3.13502 -6.20968 
-4.23865 3.14452 -6.30607 
-4.18491 3.21665 -6.30659 
-4.1812 3.15715 -6.27905 
-4.25789 3.38176 -6.37399 
-4.19769 3.27396 -6.29012 
-4.30915 3.205 -6.24545 
-4.32609 3.11999 -6.13462 
-3.95177 3.07714 -6.38543 
-3.9577 3.08353 -6.43818 
-3.82202 3.04244 -6.44908 
-4.00025 2.99678 -6.37639 
-4.41333 3.0889 -6.16928 
-4.22354 3.05862 -6.12754 
-4.31536 3.35136 -6.31068 
-4.29364 3.30445 -6.31231 
-4.23092 3.14172 -6.25364 
-4.40147 3.46685 -6.39784 
-4.25064 3.20157 -6.17513 
-4.25064 3.20157 -6.17513 
-3.09771 4.49354 -6.66111 
-4.13849 3.05143 -6.27001 
-4.15008 3.75311 -6.5085 
-4.07262 4.02701 -6.57767 
-4.27059 3.32922 -6.36838 
-4.44177 3.3332 -6.31247 
-4.20059 3.2743 -6.30048 
-4.18408 3.2185 -6.29838 
-3.8637 3.18572 -6.43204 
-3.83357 3.15845 -6.51124 
-4.25838 3.38535 -6.41465 
-4.01908 3.47672 -6.45721 
-4.02044 3.47389 -6.46658 
-4.07443 4.0224 -6.5929 
-1.38375 2.97686 -7.46406 
-2.48297 2.8966 -7.64101 
-1.55972 2.76787 -7.6761 
-1.80898 2.74803 -7.69972 
-2.29466 2.74536 -7.76914 
-1.39052 2.70001 -7.73596 
-2.29409 2.69879 -7.77811 
-2.41944 2.69513 -7.76964 
-1.4233 2.68563 -7.7163 
-2.24476 2.67107 -7.87944 
-1.48597 2.63534 -7.78473 
-1.51884 2.57037 -7.86461 
-1.59335 2.50276 -7.858 
-1.53 2.46127 -7.8831 
-2.406 2.42721 -8.0335 
-2.8549 2.35061 -7.59667 
-2.8549 2.35061 -7.59667 
-2.2481 2.2912 -8.00435 
-2.15728 2.26267 -8.06468 
-2.13151 2.24327 -8.10221 
-2.002 2.97517 -7.5512 
-2.47688 2.97514 -7.55614 
-2.08336 2.95691 -7.56708 
-1.38499 2.93259 -7.50533 
-2.32677 2.84931 -7.67059 
-2.32682 2.84796 -7.67168 
-2.64178 2.85081 -7.49996 
-2.64438 2.84997 -7.58963 
-2.04839 2.83817 -7.66216 
-1.54251 2.81016 -7.60272 
-1.54264 2.81146 -7.65802 
-2.03616 2.76237 -7.81583 
-1.49417 2.75206 -7.68841 
-2.72061 2.71792 -7.50093 
-2.72749 2.72122 -7.56742 
-1.62573 2.71068 -7.75217 
-2.16105 2.64441 -7.83442 
-1.88765 2.55542 -7.8446 
-2.33316 2.53537 -7.85147 
-2.33591 2.53831 -7.87947 
-1.53341 2.5136 -7.85796 
-2.57385 2.43394 -7.74428 
-1.50307 2.42647 -7.89969 
-2.38861 2.42198 -7.81572 
-2.1417 2.40661 -7.98093 
-2.05887 2.37749 -7.94176 
-1.50354 2.33449 -7.98619 
-1.76477 2.28529 -8.04006 
-2.88399 2.27461 -7.57877 
-1.62435 2.26089 -8.04665 
-2.60947 2.20771 -7.71085 
-2.89065 2.10421 -7.55614 
-2.89018 2.10711 -7.53934 
-1.53607 2.07815 -8.19315 
-2.83307 1.51037 -7.30898 
-2.6498 2.98311 -7.50294 
-2.71609 2.98212 -7.49186 
-2.71559 2.98315 -7.49878 
-2.64811 2.97811 -7.50316 
-2.32833 2.93503 -7.59405 
-2.33422 2.93503 -7.5854 
-1.54126 2.92622 -7.5269 
-2.02401 2.90896 -7.60317 
-2.02494 2.90664 -7.57791 
-2.69003 2.89896 -7.5424 
-2.28753 2.87653 -7.62621 
-2.19426 2.84405 -7.72104 
-2.19426 2.84405 -7.72104 
-1.81988 2.80747 -7.64886 
-1.43293 2.77517 -7.64454 
-1.43277 2.77913 -7.63394 
-2.23938 2.76966 -7.76173 
-1.48231 2.71596 -7.71962 
-1.60258 2.70965 -7.73576 
-2.19392 2.68643 -7.83469 
-1.64301 2.64469 -7.75972 
-2.31663 2.64423 -7.78974 
-2.52568 2.54628 -7.72942 
-2.36243 2.48582 -7.83932 
-2.1353 2.46991 -7.95754 
-2.13617 2.46932 -7.94956 
-1.65158 2.44459 -7.92197 
-2.47453 2.43944 -7.77873 
-2.47082 2.44175 -7.80307 
-1.9948 2.38338 -7.98371 
-1.62824 2.33739 -8.03921 
-1.62386 2.33675 -7.98873 
-2.64539 2.32823 -7.77885 
-1.72047 2.23566 -8.04731 
-2.90794 2.21511 -7.5742 
-2.7587 2.21201 -7.60122 
-2.88624 1.53896 -7.37604 
-2.77152 1.48536 -7.41248 
-2.74219 2.9291 -7.461 
-1.92179 2.7725 -7.69624 
-2.49975 2.76076 -7.63948 
-2.35131 2.7299 -7.67605 
-2.07922 2.6454 -7.86965 
-2.08908 2.64096 -7.83037 
-2.08908 2.64096 -7.83037 
-1.4383 2.57697 -7.7891 
-1.7029 2.56348 -7.77972 
-2.03636 2.50673 -7.93277 
-2.29052 2.41309 -7.99244 
-2.19048 2.94953 -7.6081 
-1.78752 2.69807 -7.78705 
-2.61558 2.60655 -7.67289 
-2.45787 2.36238 -7.87434 
-1.78432 2.1975 -8.06783 
-2.10184 1.97235 -8.0995 
-1.73438 2.7474 -7.62496 
-2.0235 2.74487 -7.78272 
-1.49663 2.59398 -7.66892 
-2.28114 2.5004 -7.96006 
-2.28572 2.50236 -7.87452 
-1.78417 2.47334 -7.88027 
-1.99814 2.1518 -8.08347 
-1.99682 2.14927 -8.09136 
-2.78797 2.55964 -7.55693 
-2.36313 2.11787 -7.9972 
-2.40456 2.01029 -8.03512 
-1.40821 2.46023 -7.92622 
-2.01439 2.95782 -7.48699 
-1.49788 2.79894 -7.54794 
-2.461 2.73163 -7.64575 
-2.91118 2.63678 -7.41864 
-1.60103 2.50227 -7.81461 
-2.16624 2.25869 -7.98122 
-2.39636 2.82806 -7.68307 
-2.02741 2.7618 -7.73153 
-2.53686 2.46744 -7.75544 
-2.53842 2.47345 -7.74951 
-1.7247 2.33197 -8.01823 
-2.641 2.31781 -7.76148 
-1.76134 2.28461 -8.02429 
-1.85641 2.18712 -8.0827 
-1.5362 2.0802 -8.1658 
-2.02218 2.89956 -7.59301 
-2.56847 2.82319 -7.56503 
-1.42639 2.77473 -7.69114 
-2.57852 2.67069 -7.65424 
-2.50821 2.66239 -7.68387 
-2.31824 2.64108 -7.76711 
-1.95839 2.51447 -7.9152 
-1.95378 2.5128 -7.91204 
-2.35878 2.48672 -7.85789 
-2.74413 2.29203 -7.65125 
-1.42629 2.57418 -7.88799 
-2.28412 2.40517 -7.88399 
-2.10129 2.15402 -8.05357 
-2.77118 2.93023 -7.50603 
-1.79154 2.69074 -7.75783 
-2.01953 2.74143 -7.82245 
-1.49333 2.58967 -7.68595 
-2.27714 2.49992 -7.93706 
-2.24782 2.97049 -7.52992 
-2.25191 2.96521 -7.55336 
-1.44143 2.90241 -7.5406 
-1.53932 2.81059 -7.62171 
-2.45584 2.73923 -7.72019 
-2.76912 2.72351 -7.50379 
-2.29785 2.69763 -7.81133 
-2.41248 2.6888 -7.73786 
-2.88501 2.49372 -7.49929 
-2.87719 2.49016 -7.59864 
-2.12569 2.37105 -7.95986 
-1.80948 2.31273 -8.08418 
-2.52627 2.02416 -7.80384 
-1.9261 2.96411 -7.54536 
-2.39887 2.83144 -7.70229 
-2.87255 2.23194 -7.65709 
-2.18991 2.84397 -7.69514 
-2.78158 2.80106 -7.53117 
-1.64733 2.64622 -7.78172 
-2.44633 2.63971 -7.7815 
-2.43914 2.63786 -7.73132 
-1.72344 2.23671 -8.07055 
-2.85975 2.00688 -7.44194 
-1.93747 2.72112 -7.63031 
-2.28861 1.78431 -7.71742 
-2.88718 4.39686 -6.72894 
-2.88119 4.38932 -6.73658 
-2.56426 4.22414 -6.74661 
-2.13873 4.02787 -6.77616 
-2.62693 4.0243 -6.85461 
-2.21721 4.00434 -6.81569 
-2.56404 4.01148 -6.87949 
-2.56144 4.00588 -6.83373 
-2.27993 3.99488 -6.78518 
-2.54696 3.89369 -6.91504 
-2.5974 3.87849 -6.95826 
-2.59476 3.87475 -6.90437 
-2.72347 3.87547 -7.05703 
-2.12208 3.78265 -6.91345 
-2.1236 3.79083 -6.93063 
-2.57219 3.76046 -7.00504 
-2.57106 3.76532 -7.0378 
-1.65662 3.56297 -6.99299 
-2.14857 3.51863 -7.05441 
-1.96499 3.50257 -7.05793 
-2.59439 3.33747 -7.28073 
-1.75755 3.32873 -7.18995 
-2.38248 3.32072 -7.32074 
-1.87456 3.25809 -7.25611 
-2.32992 3.24847 -7.33704 
-1.62788 3.22142 -7.26346 
-2.34256 3.161 -7.42894 
-1.91592 3.14212 -7.35362 
-1.91592 3.14212 -7.35362 
-2.35053 3.13597 -7.47366 
-1.58278 3.10309 -7.32298 
-2.63292 3.08658 -7.43046 
-2.13798 3.06323 -7.4952 
-2.40311 3.01556 -7.48936 
-2.84226 4.25625 -6.74865 
-2.90305 4.25655 -6.76207 
-2.77378 4.23298 -6.74754 
-2.51206 4.19915 -6.69951 
-2.51206 4.19915 -6.69951 
-2.88751 4.125 -6.82645 
-2.90562 4.07318 -6.87945 
-2.31155 4.03511 -6.82696 
-2.13822 3.9711 -6.7925 
-2.77925 3.96491 -6.91542 
-2.49413 3.95408 -6.86663 
-2.41256 3.94916 -6.8638 
-2.37309 3.93125 -6.88844 
-2.36991 3.93029 -6.85957 
-2.58414 3.83152 -6.96129 
-2.61147 3.78601 -7.01916 
-2.03218 3.71862 -6.93565 
-2.03186 3.71584 -6.93822 
-2.00271 3.67346 -6.97296 
-2.00663 3.67349 -7.00958 
-2.08575 3.62639 -6.99434 
-1.973 3.59026 -7.049 
-1.97306 3.5901 -7.04945 
-1.93178 3.56628 -7.02148 
-1.93178 3.56628 -7.02148 
-2.30717 3.56562 -7.1095 
-1.78776 3.54299 -7.02959 
-2.91012 3.52809 -7.24006 
-1.88031 3.51392 -7.08548 
-2.02107 3.50956 -7.06078 
-2.17844 3.49604 -7.13833 
-2.18165 3.49423 -7.07165 
-2.29474 3.48378 -7.15348 
-1.9489 3.44838 -7.12592 
-2.0486 3.43864 -7.15366 
-1.93277 3.39013 -7.20808 
-1.65673 3.37033 -7.15122 
-1.73329 3.37207 -7.25174 
-1.73213 3.3702 -7.14655 
-2.90219 3.33552 -7.27447 
-2.33956 3.32739 -7.30745 
-1.74057 3.29039 -7.24228 
-1.83309 3.28429 -7.2547 
-2.52198 3.27717 -7.32996 
-1.55705 3.27466 -7.23215 
-2.89461 3.26169 -7.27389 
-1.50319 3.24744 -7.1879 
-2.11492 3.21689 -7.34097 
-1.42961 3.20045 -7.21919 
-1.59059 3.19952 -7.26889 
-2.14894 3.17775 -7.39437 
-2.21435 3.17528 -7.38401 
-2.08786 3.16689 -7.38541 
-1.62334 3.14858 -7.29162 
-2.31619 3.13276 -7.45016 
-2.3158 3.13108 -7.43146 
-2.08115 3.07188 -7.46449 
-2.23252 3.00015 -7.5403 
-2.23252 3.00015 -7.5403 
-2.90173 4.24115 -6.74759 
-2.90173 4.24115 -6.74759 
-2.82626 4.12623 -6.81206 
-2.0062 4.06158 -6.75345 
-2.0061 4.05962 -6.7285 
-2.52689 4.02534 -6.8756 
-2.33332 3.98243 -6.83257 
-2.33332 3.98243 -6.83257 
-2.22753 3.94383 -6.84286 
-2.58059 3.94069 -6.87418 
-2.79625 3.76669 -7.08788 
-2.46501 3.74917 -6.9617 
-2.78156 3.75586 -7.14556 
-2.37843 3.69064 -7.02117 
-1.93087 3.67909 -6.96917 
-2.44612 3.66586 -7.07821 
-2.03344 3.59822 -7.00261 
-1.52185 3.58859 -6.97797 
-2.39864 3.5906 -7.08991 
-2.84044 3.58684 -7.23341 
-2.62626 3.54442 -7.18221 
-2.62626 3.54442 -7.18221 
-2.24005 3.51718 -7.13465 
-2.27985 3.34542 -7.26116 
-2.475 3.30108 -7.3604 
-2.74528 3.20316 -7.30416 
-2.82743 3.20652 -7.30048 
-2.30788 3.19876 -7.37735 
-2.88236 3.17149 -7.33114 
-1.3822 3.14937 -7.28809 
-2.32562 3.082 -7.48175 
-2.67537 3.03983 -7.45817 
-2.67537 3.03983 -7.45817 
-2.34975 3.00938 -7.51993 
-2.65421 2.99524 -7.55062 
-2.58101 3.73732 -7.03474 
-2.84591 3.26523 -7.29511 
-1.9825 3.09218 -7.45826 
-2.55207 3.09258 -7.46782 
-2.89673 4.50695 -6.69084 
-2.89029 4.15982 -6.82474 
-2.42141 4.13313 -6.83935 
-1.96195 3.84578 -6.93954 
-2.30952 3.77868 -6.93592 
-2.5943 3.69285 -7.08844 
-1.53217 3.39638 -7.13417 
-2.6032 3.24497 -7.28445 
-1.45206 3.03694 -7.36617 
-2.83898 4.5002 -6.6896 
-2.57039 3.91905 -6.88541 
-2.02393 3.6453 -6.98722 
-2.34954 3.16195 -7.40337 
-2.35128 3.16169 -7.39315 
-1.98708 3.14188 -7.37333 
-2.5918 4.40962 -6.69161 
-2.39572 3.52804 -7.19995 
-2.39792 3.53626 -7.1077 
-2.49969 4.18912 -6.74697 
-2.12734 3.96613 -6.81359 
-2.70608 3.90489 -6.89462 
-1.65841 3.56395 -6.96121 
-1.92786 3.56287 -7.03455 
-2.14161 3.52369 -7.10689 
-2.09467 3.50391 -7.00967 
-1.96343 3.50009 -7.09253 
-2.10067 3.33245 -7.24872 
-2.70991 3.309 -7.28088 
-1.58865 3.25033 -7.24861 
-1.87133 3.09562 -7.3744 
-2.83763 4.25648 -6.75355 
-2.59511 4.05538 -6.83667 
-2.59511 4.05538 -6.83667 
-2.10089 3.73828 -6.93034 
-2.7422 3.73109 -7.08475 
-2.38921 3.67126 -6.97925 
-2.38149 3.68095 -7.04683 
-1.83701 3.59542 -6.86809 
-1.60529 3.48421 -7.02508 
-1.95092 3.44625 -7.11098 
-1.77441 3.42054 -7.02395 
-1.76177 3.42251 -7.10006 
-1.65636 3.36497 -7.12912 
-2.18412 3.35406 -7.20362 
-2.14479 3.31926 -7.25017 
-2.46631 3.29495 -7.31161 
-1.73533 3.28999 -7.21363 
-1.78382 3.25633 -7.24439 
-1.786 3.25719 -7.25063 
-2.64978 3.18436 -7.33538 
-2.08047 3.07088 -7.46426 
-2.52982 4.01322 -6.78168 
-2.84181 3.93837 -6.96557 
-2.00865 3.78448 -6.91857 
-2.38274 3.68797 -6.97265 
-2.23998 3.51783 -7.13464 
-1.65577 3.43567 -7.10064 
-1.63465 3.29253 -7.17191 
-1.99732 3.25971 -7.28619 
-2.41279 3.25418 -7.31418 
-2.17733 3.10004 -7.4399 
-1.72259 3.06 -7.41603 
-1.72259 3.06 -7.41603 
-2.3505 3.01021 -7.51487 
-2.13696 2.99301 -7.52582 
-2.31019 3.76721 -6.9116 
-2.60947 3.68332 -6.95511 
-2.56789 3.92083 -6.88504 
-2.56015 4.2269 -6.74213 
-2.60258 3.87856 -7.01793 
-2.57635 3.77023 -7.07635 
-2.8851 3.65559 -7.18936 
-2.35113 3.63596 -7.09449 
-2.58961 3.59526 -7.24799 
-2.75689 3.50351 -7.31302 
-2.0487 3.45129 -7.1868 
-2.47523 3.3931 -7.26636 
-2.18275 3.35793 -7.26278 
-2.49819 3.36869 -7.36449 
-2.14862 3.27203 -7.36376 
-2.33626 3.24451 -7.35313 
-1.9439 3.18308 -7.32762 
-2.3301 3.16278 -7.35869 
-2.70337 3.09552 -7.35868 
-2.48754 2.99212 -7.59027 
-2.73661 4.04099 -6.84979 
-2.86594 4.03311 -6.90095 
-2.44848 4.00358 -6.88774 
-2.3237 3.98935 -6.71622 
-2.49907 3.82683 -6.97078 
-2.49818 3.82144 -6.99476 
-2.52861 3.81619 -7.03903 
-2.0358 3.72656 -6.96861 
-2.66437 3.72888 -7.14378 
-2.31339 3.56469 -7.14708 
-2.62029 3.53008 -7.25782 
-1.76765 3.42971 -7.15696 
-1.72569 3.37076 -7.15984 
-2.08292 3.2782 -7.27207 
-2.09884 3.2804 -7.38329 
-1.83452 3.06954 -7.43106 
-2.52068 3.60265 -7.12989 
-1.91893 3.17136 -7.43409 
-1.87979 3.01123 -7.48822 
-2.60248 3.2446 -7.25874 
-2.44817 4.45089 -6.88333 
-2.09626 4.23789 -6.62192 
-4.40931 5.42375 -6.76003 
-4.38943 5.33387 -6.67529 
-4.21077 5.08292 -6.70833 
-4.23257 5.37493 -6.76703 
-3.90508 5.24269 -6.66761 
-3.71692 5.5682 -6.51192 
-3.87044 5.38064 -6.5787 
-3.98443 5.31875 -6.61808 
-3.78335 5.42887 -6.50328 
-4.13035 5.40234 -6.61453 
-3.83212 5.36002 -6.57015 
-3.92416 5.35895 -6.58415 
-3.90278 5.31837 -6.58913 
-3.90461 5.12472 -6.56483 
-3.03786 4.52821 -6.64535 
-3.74972 5.25936 -6.57215 
-4.08095 6.01756 -6.64695 
-4.03603 5.18977 -6.62686 
-3.8428 5.95807 -6.5072 
-3.76453 5.37064 -6.52858 
-3.85147 5.27946 -6.56783 
-3.91834 5.36387 -6.5982 
-3.9074 5.30916 -6.62528 
-3.90344 5.60863 -6.59205 
-4.01459 5.84071 -6.66099 
-3.77641 5.43038 -6.59262 
-4.08141 5.32662 -6.65848 
-4.08085 5.32792 -6.6613 
-4.00015 5.41952 -6.62475 
-4.43665 7.50797 -6.88549 
-4.44307 7.51594 -6.84706 
-3.92702 7.46575 -6.8246 
-4.32302 7.43443 -6.78599 
-4.16065 7.41367 -6.8155 
-4.01716 6.44656 -6.67404 
-4.00719 6.41291 -6.69638 
-3.96349 6.31679 -6.71516 
-3.84278 7.25056 -6.80028 
-3.71295 7.51913 -6.67906 
-4.31259 7.3618 -6.91053 
-3.80892 7.23437 -6.77376 
-4.33708 7.24183 -6.81782 
-4.089 7.20396 -6.76406 
-3.62726 6.98735 -6.66964 
-4.20788 6.79907 -6.77114 
-4.21064 6.80502 -6.79284 
-4.39808 6.56472 -6.81769 
-4.00742 6.49582 -6.69492 
-4.00962 6.50312 -6.71787 
-4.06017 6.25539 -6.7358 
-4.39431 6.25074 -6.80063 
-4.39136 6.23859 -6.66675 
-4.30953 6.06043 -6.72065 
-3.73564 7.55496 -6.6661 
-3.73457 7.55375 -6.6636 
-3.94828 7.54537 -6.75608 
-3.95199 7.53808 -6.72768 
-4.33588 7.54965 -6.88694 
-3.86685 7.44954 -6.77024 
-4.25757 7.38947 -6.82039 
-3.90248 7.38225 -6.81162 
-3.89867 7.38896 -6.79996 
-3.89137 7.309 -6.82493 
-4.31388 7.28781 -6.86119 
-3.95734 7.25142 -6.79297 
-4.09424 7.21459 -6.79238 
-4.34097 7.17414 -6.78279 
-4.22184 7.10481 -6.74442 
-4.11979 7.09448 -6.73669 
-4.11979 7.09448 -6.73669 
-3.79701 7.00965 -6.66343 
-4.43945 6.92075 -6.85864 
-4.18965 6.64773 -6.76205 
-4.10532 6.49748 -6.71801 
-4.10532 6.49748 -6.71801 
-4.1451 6.37415 -6.73685 
-4.1451 6.37415 -6.73685 
-4.23305 6.19171 -6.67888 
-4.42539 7.38342 -6.83542 
-4.33559 6.61352 -6.82605 
-4.17679 6.53896 -6.78767 
-4.17992 6.54618 -6.75804 
-4.13835 6.21947 -6.70067 
-4.1391 6.22294 -6.70473 
-4.43383 7.48653 -6.91041 
-3.7647 7.3306 -6.81339 
-4.29812 6.41829 -6.76047 
-4.26061 6.84965 -6.84597 
-4.26061 6.84965 -6.84597 
-3.86109 6.64793 -6.67261 
-4.18796 7.5764 -6.83113 
-4.39863 7.31001 -6.83748 
-4.35144 7.07307 -6.70721 
-4.01876 6.48315 -6.69104 
-4.31378 7.33014 -6.77924 
-4.02668 7.22063 -6.7702 
-4.00757 7.0142 -6.67094 
-4.00757 7.0142 -6.67094 
-3.82123 6.98971 -6.6644 
-4.25592 6.67405 -6.75969 
-4.13753 7.15596 -6.74077 
-4.43015 6.93398 -6.83103 
-4.41983 6.53667 -6.70486 
-4.21141 6.37849 -6.73571 
-4.36761 7.47925 -6.94818 
-3.57823 7.41209 -6.66233 
-3.8334 7.02881 -6.71242 
-4.43411 6.78155 -6.93786 
-4.05223 6.52899 -6.7341 
-4.02637 6.49735 -6.77202 
-4.18222 6.43892 -6.76845 
-3.9606 6.31776 -6.70896 
-4.14649 6.31195 -6.71042 
-4.10306 6.43003 -6.81427 
-4.053 6.2504 -6.69783 
-4.31605 7.43735 -6.84737 
-3.82158 7.03091 -6.84043 
-4.42472 6.96337 -6.87494 
-4.42814 6.95169 -6.84466 
-4.43902 6.37084 -6.68018 
-3.64327 7.01689 -6.59268 
-3.46818 7.02027 -6.63468 
-3.46818 7.02027 -6.63468 
-4.01623 6.98314 -6.65784 
-3.82491 6.76143 -6.50714 
-3.82417 6.76545 -6.52414 
-3.59815 6.64574 -6.54423 
-3.6004 6.64031 -6.49056 
-3.41756 6.53779 -6.47458 
-3.83106 6.51246 -6.59305 
-3.62317 6.50552 -6.58026 
-3.61988 6.45903 -6.55527 
-3.45441 7.16475 -6.62808 
-3.49736 6.85804 -6.50538 
-3.24697 6.81901 -6.48687 
-3.34934 6.75958 -6.49724 
-3.34704 6.75518 -6.46661 
-3.48117 6.54425 -6.19781 
-3.46421 6.49619 -6.50795 
-3.61071 6.39495 -6.56486 
-3.92951 6.27798 -6.64212 
-3.92879 6.28227 -6.64649 
-4.22217 6.10777 -6.63117 
-3.28786 7.0978 -6.52873 
-3.28802 7.09559 -6.52764 
-3.90655 6.85526 -6.5791 
-3.74952 6.83098 -6.47178 
-3.36533 6.81724 -6.47755 
-3.29977 6.73201 -6.45581 
-3.29972 6.74266 -6.50209 
-3.97552 6.64588 -6.57985 
-3.97538 6.65547 -6.612 
-3.73381 6.5121 -6.56967 
-3.73948 6.42848 -6.56535 
-4.09115 6.40896 -6.65888 
-4.09271 6.40654 -6.65634 
-3.63869 6.28166 -6.60395 
-4.2396 6.20386 -6.65288 
-3.17802 7.08967 -6.44693 
-3.95597 7.08558 -6.65957 
-3.95625 7.07819 -6.65599 
-3.69768 6.74906 -6.5265 
-3.40494 6.63227 -6.53696 
-3.412 6.61854 -6.46277 
-3.9319 6.49943 -6.61064 
-3.8287 6.15427 -6.61433 
-3.82579 6.15889 -6.54737 
-4.09957 6.0544 -6.65149 
-3.40926 7.48794 -6.56866 
-3.43016 7.20816 -6.58568 
-3.47632 7.00767 -6.57825 
-3.47668 7.02091 -6.58153 
-3.07602 6.97241 -6.44782 
-3.07943 6.96577 -6.44773 
-3.52548 6.09111 -6.49209 
-3.12507 7.4812 -6.36982 
-2.95556 7.2744 -6.43197 
-3.07599 6.93892 -6.44713 
-3.33779 6.42136 -6.54187 
-3.71193 7.04848 -6.56025 
-3.83117 6.51223 -6.60207 
-3.46501 6.9532 -6.59364 
-4.40493 6.87448 -6.62297 
-3.74686 6.82853 -6.53918 
-3.82089 6.7536 -6.49408 
-3.74344 6.3585 -6.56214 
-3.38417 6.94735 -6.56542 
-3.19573 7.04504 -6.44592 
-3.19959 7.03722 -6.47953 
-3.53038 6.31701 -6.55466 
-3.53504 6.31052 -6.50724 
-3.5615 6.22631 -6.56431 
-3.22959 7.07694 -6.5963 
-3.82167 6.76844 -6.54483 
-3.63918 6.68604 -6.53487 
-3.42301 6.54106 -6.522 
-3.45923 6.76038 -6.48317 
-3.54401 6.55136 -6.57716 
-3.07154 7.45976 -6.42723 
-3.41178 7.50037 -6.60073 
-3.06522 7.01965 -6.48831 
-3.24938 7.08121 -6.48506 
-3.34157 6.42961 -6.58619 
-1.53854 6.01864 -6.87343 
-1.60398 5.92959 -6.79768 
-1.60264 5.92971 -6.8013 
-1.86662 5.91574 -6.69234 
-1.86422 5.91791 -6.67197 
-1.55576 5.47919 -6.73474 
-1.6326 5.46879 -6.79288 
-1.59079 6.02941 -6.8855 
-1.49926 5.98529 -6.89834 
-1.53812 5.96557 -6.86878 
-1.83511 5.96264 -6.70112 
-1.89498 5.96607 -6.70631 
-1.57188 5.7735 -6.79949 
-1.41711 5.32839 -6.72201 
-1.4063 5.31815 -6.73601 
-1.6457 5.983 -6.80569 
-1.73825 5.79963 -6.75381 
-1.44857 5.6532 -6.83367 
-1.50589 5.4138 -6.72003 
-1.47528 5.90723 -6.9012 
-1.72088 5.43866 -6.67428 
-1.71853 5.4386 -6.70373 
-1.63017 5.2005 -6.68273 
-1.58009 5.89598 -6.91848 
-1.94173 5.93558 -6.67028 
-1.94173 5.93558 -6.67028 
-1.47715 5.44579 -6.71097 
-1.44142 5.71907 -6.83426 
-1.41599 5.32723 -6.73045 
-1.7245 5.88839 -6.72177 
-1.54494 6.02326 -6.91991 
-1.62573 5.46878 -6.69851 
-1.52587 5.08599 -6.67848 
-1.73858 5.80221 -6.75784 
-1.49355 5.76735 -6.87803 
-2.37029 5.99066 -6.55156 
-2.36967 5.98335 -6.49211 
-1.9959 5.36614 -6.58881 
-1.48898 5.1875 -6.64175 
-1.95531 5.98361 -6.6402 
-1.95531 5.98361 -6.6402 
-1.93052 5.88153 -6.62246 
-2.07617 6.02096 -6.58968 
-2.21207 6.00722 -6.50628 
-2.02974 5.94023 -6.65847 
-1.94757 5.78296 -6.64503 
-1.83812 5.5698 -6.62094 
-1.60723 5.35773 -6.66195 
-2.21409 5.95232 -6.53906 
-2.03169 5.64213 -6.63544 
-2.01815 5.61479 -6.59562 
-1.90673 5.43133 -6.64861 
-2.20843 5.86089 -6.61693 
-2.1737 5.88259 -6.54226 
-2.12792 5.82751 -6.57144 
-1.98952 5.36445 -6.62612 
-1.79199 5.30784 -6.59962 
-1.83455 5.55974 -6.58635 
-1.60284 5.35777 -6.6489 
-2.0365 5.65063 -6.59325 
-2.01651 5.59776 -6.53621 
-2.04935 5.58449 -6.6323 
-2.03225 5.55092 -6.62611 
-1.93059 5.89028 -6.66077 
-2.03566 5.65771 -6.58529 
-1.64738 5.16114 -6.63594 
-1.47316 6.26814 -6.94517 
-1.97092 6.18629 -6.67566 
-1.97289 6.15254 -6.75036 
-1.39405 6.94269 -6.77255 
-1.88713 6.32696 -6.71888 
-1.44837 7.19912 -6.6905 
-1.57541 7.06682 -6.68282 
-1.59643 7.06223 -6.66379 
-1.63909 7.03044 -6.70236 
-1.48187 6.97629 -6.69051 
-1.67136 6.91686 -6.75926 
-1.95084 6.32129 -6.68358 
-1.9531 6.32413 -6.70538 
-1.88489 6.24601 -6.70168 
-1.74177 6.05929 -6.74304 
-1.74698 6.05474 -6.69817 
-1.72832 6.10874 -6.69439 
-1.62677 6.2795 -6.70301 
-1.54665 6.38023 -6.70239 
-1.44087 6.93498 -6.79746 
-1.5822 6.84734 -6.78771 
-1.89235 6.24765 -6.75301 
-1.92453 6.18026 -6.66976 
-1.40399 6.15433 -6.97215 
-1.41305 6.15899 -7.03567 
-1.52709 7.21385 -6.67458 
-1.58456 6.84216 -6.80886 
-1.99782 6.37917 -6.66257 
-1.5527 6.07461 -6.87275 
-1.65852 7.17843 -6.69854 
-1.65852 7.17843 -6.69854 
-2.11194 7.46813 -6.42501 
-2.05307 7.40357 -6.49137 
-2.13602 7.39672 -6.40059 
-2.39442 7.37935 -6.42546 
-2.39442 7.37935 -6.42546 
-2.13761 6.77388 -6.54498 
-2.04609 6.15422 -6.5986 
-2.22223 6.07993 -6.53348 
-1.96367 7.55595 -6.47448 
-2.15764 7.35429 -6.44758 
-2.30099 7.31551 -6.44202 
-1.91154 7.16678 -6.54809 
-2.37826 7.03481 -6.4128 
-2.25631 6.91021 -6.43318 
-2.25694 6.90767 -6.42467 
-2.00516 6.25556 -6.6508 
-2.02028 6.06552 -6.59841 
-1.89805 7.55069 -6.47864 
-1.97065 7.53637 -6.47204 
-1.96904 7.54242 -6.50792 
-2.1054 7.51996 -6.44937 
-2.15779 7.39404 -6.43817 
-1.45024 7.33394 -6.65101 
-1.45024 7.33394 -6.65101 
-1.50258 7.28063 -6.64405 
-2.14328 7.25597 -6.44715 
-2.21341 7.25421 -6.4439 
-1.8939 7.23546 -6.55387 
-1.88632 7.10865 -6.61352 
-1.88632 7.10865 -6.61352 
-1.59447 7.05884 -6.60497 
-1.99833 6.87574 -6.54544 
-1.99957 6.87405 -6.54593 
-2.32953 6.77198 -6.44882 
-2.02635 6.57525 -6.58068 
-2.10682 6.57608 -6.5452 
-2.32777 6.57487 -6.49697 
-2.1682 6.52846 -6.533 
-2.08626 6.22523 -6.57831 
-2.0366 6.10689 -6.59557 
-1.99684 7.37439 -6.55164 
-1.99328 7.37323 -6.44441 
-1.84603 7.34485 -6.49969 
-1.84409 7.34068 -6.5187 
-2.05432 7.13516 -6.39679 
-2.19511 7.07935 -6.52151 
-2.19511 7.07935 -6.52151 
-2.24383 6.4808 -6.49175 
-2.22793 6.44219 -6.51632 
-2.22703 6.4375 -6.50664 
-2.09561 6.41088 -6.4444 
-2.20976 6.36701 -6.491 
-1.97925 7.0574 -6.52905 
-2.14212 6.23321 -6.50595 
-2.69198 7.32729 -6.44636 
-2.29849 7.30507 -6.42948 
-2.14159 6.96951 -6.4947 
-2.14283 6.96437 -6.48354 
-1.96763 6.17829 -6.64705 
-1.97044 6.18175 -6.64614 
-2.35371 6.17138 -6.49825 
-1.84871 7.50467 -6.5009 
-2.03437 7.24096 -6.40205 
-2.33298 7.15337 -6.42478 
-2.09856 6.50749 -6.54229 
-2.00546 6.25414 -6.63975 
-2.09638 7.3826 -6.4514 
-2.09638 7.3826 -6.4514 
-2.14535 7.24149 -6.4694 
-2.14538 7.2249 -6.46976 
-2.11541 7.09884 -6.43772 
-2.0253 6.57411 -6.58169 
-1.67322 7.35245 -6.5138 
-2.19646 7.49704 -6.39523 
-2.16797 6.84786 -6.44002 
-2.68307 7.33717 -6.37117 
-2.70254 7.33616 -6.19854 
-2.67463 7.30894 -6.55827 
-2.10449 6.67254 -6.37212 
-2.09689 6.67317 -6.35034 
-2.82887 7.55402 -6.40628 
-2.14979 6.98017 -6.55228 
-2.22466 6.93857 -6.54401 
-2.14247 6.81273 -6.57232 
-2.17516 6.78151 -6.45389 
-1.97644 6.63544 -6.62102 
-2.07373 6.54923 -6.55471 
-2.08061 7.54012 -6.45021 
-2.11945 6.72898 -6.589 
-2.04311 6.32548 -6.617 
-2.10648 6.3058 -6.55394 
-2.05232 7.49625 -6.49291 
-2.16498 7.37783 -6.43746 
-2.3141 6.85407 -6.46213 
-2.21248 6.46069 -6.32281 
-2.08329 6.41355 -6.57077 
-2.21442 6.37982 -6.52881 
-0.221266 2.91686 -7.38985 
-1.07423 2.85686 -7.5956 
0.0666859 2.84096 -7.44702 
-0.0837132 2.8433 -7.38077 
-0.134866 2.56033 -7.57531 
-0.295653 2.55446 -7.66892 
-0.324518 2.53581 -7.72051 
-0.465844 2.48864 -7.7705 
-0.209055 2.44345 -7.64715 
-0.49192 2.31073 -7.92958 
-0.698776 2.22747 -8.0774 
-0.593212 2.15191 -8.09882 
-0.833793 2.12659 -8.15007 
-0.725739 2.97038 -7.51708 
-0.726075 2.97696 -7.532 
-0.664715 2.94402 -7.57931 
0.147873 2.92762 -7.34193 
-0.996537 2.91793 -7.54085 
-1.00818 2.92747 -7.44781 
-0.0647934 2.90002 -7.38722 
-0.645949 2.88467 -7.59543 
-1.12194 2.86277 -7.58304 
-0.133528 2.84927 -7.4371 
0.0108352 2.80872 -7.44304 
-0.166715 2.79148 -7.47649 
-0.166296 2.79039 -7.46655 
-0.600514 2.78895 -7.64427 
-0.600412 2.79004 -7.63494 
-0.690907 2.74961 -7.72245 
-0.520104 2.73356 -7.67154 
-1.20203 2.68683 -7.78796 
-1.20053 2.6856 -7.69816 
-1.34013 2.68797 -7.73767 
0.126492 2.67688 -7.45434 
-0.499469 2.59681 -7.7413 
-0.1001 2.57396 -7.57775 
-0.103475 2.58048 -7.53818 
-0.0527865 2.56648 -7.54664 
-0.257353 2.51036 -7.64091 
-0.55001 2.5028 -7.84049 
-0.319038 2.42526 -7.76386 
-0.316824 2.42744 -7.80815 
-0.569833 2.30223 -7.97371 
-0.359054 2.29376 -7.80098 
-0.299093 2.27826 -7.8434 
-0.636732 2.25255 -8.04411 
-0.524741 2.22679 -7.98704 
-1.23405 2.21898 -8.06694 
-0.614756 2.20199 -8.06679 
-0.614355 2.20229 -8.06898 
-0.685129 2.17881 -8.13157 
-0.684743 2.1777 -8.12782 
-0.491777 2.13635 -8.01886 
-0.550804 2.13513 -8.04796 
-0.551789 2.13552 -8.04897 
-0.464176 2.04746 -8.05313 
-0.546116 2.98851 -7.47326 
-1.1414 2.9574 -7.48972 
-1.33687 2.95447 -7.44311 
0.110252 2.87981 -7.36896 
0.0100393 2.88324 -7.37392 
-0.314605 2.83214 -7.51852 
-1.04915 2.80788 -7.6511 
-0.114107 2.7837 -7.448 
-0.292381 2.74916 -7.59629 
-0.0673597 2.7329 -7.49028 
-0.741993 2.69306 -7.75079 
-0.929715 2.6857 -7.79478 
0.0123571 2.63914 -7.52716 
0.0123571 2.63914 -7.52716 
-1.31311 2.62224 -7.77357 
-0.381571 2.45225 -7.77461 
-0.0883944 2.42387 -7.65057 
-0.426014 2.3115 -7.9461 
-0.527747 2.24385 -7.97179 
-0.365751 2.21818 -7.92287 
-0.467802 2.21993 -8.04572 
-0.3838 2.13732 -7.91989 
-0.469721 2.10966 -8.03212 
-1.30583 2.86126 -7.59829 
-0.0958724 2.82763 -7.42875 
-0.554996 2.69022 -7.63912 
0.0972245 2.59557 -7.45024 
0.100102 2.59685 -7.47808 
0.0145204 2.51017 -7.60012 
-0.447149 2.37078 -7.79818 
-0.300107 2.22343 -7.92074 
-0.496991 2.86188 -7.59467 
0.104918 2.78307 -7.44862 
-0.910082 2.79219 -7.6908 
-1.24738 2.33831 -8.03317 
-0.463654 2.18453 -7.91587 
0.015368 2.01263 -7.82302 
-0.176041 2.92692 -7.39058 
-0.618969 2.63688 -7.69763 
-0.873843 2.88787 -7.56222 
-1.02121 2.86175 -7.60351 
-1.01903 2.86339 -7.61623 
0.0604095 2.84349 -7.4062 
-0.0850631 2.83955 -7.3894 
-1.17104 2.78305 -7.62453 
-1.14282 2.76159 -7.57348 
-0.316662 2.41875 -7.74393 
-0.73685 2.21245 -8.0887 
-0.947652 2.88872 -7.57304 
-0.03789 2.79954 -7.42976 
-0.601443 2.78813 -7.64664 
-0.136901 2.64037 -7.55277 
-0.114438 2.60066 -7.55876 
-0.499232 2.59547 -7.74112 
-0.35161 2.29274 -7.83888 
-1.22184 2.95756 -7.48756 
-1.22352 2.95913 -7.45768 
-1.16257 2.82898 -7.61782 
-0.112593 2.78487 -7.4397 
-0.583389 2.43358 -7.90873 
-0.268985 2.33459 -7.77288 
-0.482118 2.10821 -7.94417 
-0.438993 2.3644 -7.83841 
-0.981046 2.34441 -7.98118 
-1.24788 2.33949 -8.0189 
-0.984855 2.09528 -7.94886 
0.0935005 1.59541 -8.01053 
-0.23147 2.545 -7.64913 
0.0804919 2.51043 -7.59201 
-0.754967 2.89323 -7.59589 
0.0609264 2.84548 -7.40187 
-0.249169 2.74651 -7.64761 
-0.0472202 2.62749 -7.52827 
-0.13389 2.56514 -7.56853 
-0.249875 2.51516 -7.65304 
-0.252301 2.51363 -7.67069 
-0.210849 2.44357 -7.66489 
-0.863415 2.90169 -7.59097 
-0.167813 2.61098 -7.57586 
-0.447002 2.10073 -7.99297 
-0.447002 2.10073 -7.99297 
-0.269392 2.33495 -7.76649 
-0.461229 2.21824 -7.9689 
-0.382935 2.13993 -7.92111 
-1.2724 2.34233 -8.18829 
0.0775952 1.56883 -8.02784 
0.0698709 1.54609 -7.94586 
-0.664385 3.57249 -7.02727 
-0.791663 3.43662 -7.13571 
-0.624922 3.33798 -7.24576 
-0.491687 3.26819 -7.25281 
-1.09129 3.24202 -7.29004 
-0.35754 3.21762 -7.33374 
-0.412783 3.20983 -7.29467 
-0.566021 3.20015 -7.35139 
-0.38212 3.18724 -7.3247 
0.0165699 3.17299 -7.30561 
-1.04586 3.10141 -7.36998 
-1.11608 3.09523 -7.32817 
-1.35867 3.07823 -7.3655 
-0.228212 3.72341 -7.09677 
0.117558 3.67725 -7.22475 
-0.241647 3.63111 -7.1013 
-0.242546 3.63093 -7.10394 
-0.508293 3.56196 -7.06116 
-0.506036 3.55667 -7.00456 
-0.774051 3.52087 -7.04057 
0.0747359 3.50205 -7.40121 
0.0421529 3.43716 -7.18557 
-1.0305 3.40439 -7.15432 
-1.01693 3.30542 -7.29463 
-0.797609 3.26443 -7.29711 
-0.533784 3.14286 -7.36727 
-0.796095 3.13661 -7.37763 
-0.123402 3.11772 -7.32827 
-0.437253 3.11128 -7.35532 
-1.23715 3.11628 -7.34709 
0.100409 3.09497 -7.29037 
-0.442325 3.02375 -7.42912 
-0.502862 3.66865 -6.9832 
-0.699897 3.53122 -7.07582 
-0.057431 3.49577 -7.1803 
0.018561 3.49094 -7.20857 
-0.503789 3.4683 -7.10031 
-0.96953 3.45185 -7.14314 
-0.797098 3.36848 -7.20499 
-0.565583 3.33442 -7.25981 
-0.741963 3.29683 -7.3314 
-0.0288224 3.20802 -7.27833 
-0.990639 3.20119 -7.29426 
-0.0645624 3.12447 -7.3224 
-0.80092 3.06501 -7.53184 
-1.10898 3.0465 -7.44546 
-1.10858 3.05157 -7.45895 
-1.16795 3.01975 -7.43516 
-0.824485 3.47828 -7.0966 
-0.824485 3.47828 -7.0966 
-0.13161 3.45523 -7.13076 
-0.091222 3.26808 -7.24116 
-0.096306 3.25768 -7.25142 
-0.911832 3.13779 -7.43755 
-1.29782 3.07435 -7.35189 
-0.0949649 2.99574 -7.38837 
-0.92296 2.99479 -7.48949 
-0.378036 3.55129 -7.00245 
-0.267186 3.24475 -7.25209 
0.073906 3.23651 -7.24296 
-1.18004 3.19808 -7.29381 
-1.17798 3.19561 -7.30138 
-0.592864 3.24519 -7.28644 
-0.303429 4.45174 -6.98456 
0.133385 3.62803 -7.23115 
-1.25509 3.57505 -6.97741 
-0.558865 3.56053 -7.03528 
-0.719268 3.43915 -7.10938 
-0.84511 3.39765 -7.17582 
-0.382886 3.07622 -7.36332 
-0.393426 3.07556 -7.30159 
-0.194995 3.06771 -7.32074 
-0.836763 3.03894 -7.45895 
0.11603 3.67541 -7.21622 
-1.05993 3.46528 -7.1212 
-1.1242 3.43016 -7.08638 
-0.624176 3.33585 -7.24396 
-0.986219 3.19761 -7.2996 
-0.541948 3.02228 -7.44532 
-0.665624 3.01858 -7.48719 
-0.611243 3.61483 -6.99933 
-0.249697 3.5061 -7.1044 
-0.910471 3.40557 -7.13512 
-0.569832 3.33312 -7.22616 
-1.31061 3.07425 -7.25096 
-0.351797 3.03806 -7.46575 
-0.190181 3.55737 -7.05703 
-0.200276 3.55769 -7.11703 
-0.766117 3.52755 -7.06445 
-0.372536 3.52375 -7.06534 
-1.09279 3.24411 -7.2716 
-1.09279 3.24411 -7.2716 
-0.603815 3.2074 -7.37649 
-0.49987 3.19127 -7.32734 
-0.396004 3.14389 -7.34149 
-0.232995 3.72564 -7.11483 
-0.286962 3.72596 -7.11867 
-1.20424 3.57836 -7.03594 
-0.562996 3.56099 -6.99339 
-0.715447 3.37787 -7.12513 
-0.679662 3.26955 -7.30711 
-1.23687 3.11921 -7.35473 
-0.490829 3.01871 -7.44658 
-0.504233 3.6748 -7.00808 
-0.503353 3.469 -7.08608 
-0.801117 3.37039 -7.23597 
-0.166668 3.15181 -7.3174 
0.115972 3.09201 -7.21248 
-1.23623 3.05271 -7.40777 
-0.425096 3.02695 -7.41976 
-0.930765 2.99831 -7.3023 
-0.995844 3.59489 -7.00591 
-0.377458 3.54927 -7.0084 
0.227083 2.95238 -7.27422 
0.233203 2.94555 -7.21653 
0.233452 2.94501 -7.30805 
0.26861 2.96935 -7.21473 
0.350491 2.91765 -7.16656 
0.666951 2.79677 -6.99962 
1.08086 2.13881 -7.2427 
1.08275 2.13982 -7.17375 
1.66111 2.0378 -7.06719 
0.350104 1.73876 -7.80475 
0.396695 2.95663 -7.15146 
0.324 2.85541 -7.25038 
0.591035 2.8237 -7.05104 
0.619311 2.83531 -7.06961 
0.248658 2.69019 -7.34523 
0.40857 1.96908 -7.62375 
0.408204 1.96753 -7.63161 
0.549382 2.96819 -6.99881 
1.15419 2.92233 -6.74487 
0.882998 2.68475 -6.85292 
0.706467 2.54342 -7.24901 
1.24006 2.47422 -6.90301 
1.54894 2.38452 -6.82648 
0.359115 2.34302 -7.41556 
1.50052 2.21971 -6.98477 
1.28282 2.18429 -7.1784 
1.27699 2.18684 -7.0912 
0.189297 2.16349 -7.58998 
0.189246 2.16657 -7.60211 
0.706944 2.07806 -7.45585 
0.379301 1.96123 -7.59464 
0.615517 1.94108 -7.59351 
0.935721 1.92027 -7.45511 
1.51407 1.86569 -7.27407 
0.21681 1.75663 -7.85569 
0.653912 1.66812 -7.69157 
1.0658 1.65195 -7.51843 
1.03837 2.51012 -6.87176 
1.56017 2.33491 -6.71038 
0.759165 1.84915 -7.48172 
0.193322 2.9363 -7.28073 
0.31277 2.81118 -7.26347 
0.31277 2.81118 -7.26347 
0.34987 2.91744 -7.17375 
0.682137 2.85469 -6.97491 
0.201269 2.74044 -7.36996 
0.201269 2.74044 -7.36996 
0.5554 2.97329 -7.05501 
1.37776 1.97481 -7.25587 
0.970406 2.42366 -7.14238 
0.720253 1.77454 -7.39626 
0.4006 2.95228 -7.11518 
0.352287 2.91313 -7.20247 
0.255933 2.84939 -7.25666 
1.63766 2.29564 -6.83907 
0.634164 2.84235 -7.0817 
0.634164 2.84235 -7.0817 
0.703994 2.06423 -7.43108 
1.3264 2.97116 -6.54064 
1.15807 2.67717 -6.65823 
1.66094 2.92076 -6.50488 
1.54082 2.69973 -6.50357 
1.18223 4.47726 -7.31 
0.264571 4.46936 -7.11486 
0.922816 4.46418 -7.42737 
0.416522 4.46184 -7.16479 
1.22257 4.45708 -7.33357 
1.22498 4.44909 -7.2916 
0.279227 4.4369 -7.11359 
1.38397 4.41382 -7.19508 
1.0153 4.41552 -7.36618 
1.46853 4.21505 -7.06607 
1.56385 4.13246 -6.95986 
0.76309 4.11889 -7.16376 
0.756819 4.07048 -7.08109 
1.52206 4.02809 -6.89477 
1.01563 3.99803 -7.0896 
1.01625 4.0004 -7.10038 
1.66453 3.96839 -6.77184 
1.04394 3.94172 -6.97052 
0.473235 3.93552 -6.95758 
0.489833 3.87634 -6.95416 
0.408598 3.88206 -6.97416 
1.28847 3.86757 -6.81689 
1.28946 3.86756 -6.79565 
1.6438 3.84973 -6.698 
0.881932 3.85071 -6.91539 
0.881182 3.85313 -6.91696 
1.23041 3.84326 -6.84539 
1.02292 3.79817 -6.80974 
0.440484 3.75275 -7.04369 
0.722549 3.72301 -6.88205 
0.517731 3.70146 -7.02582 
0.491402 3.54542 -7.06627 
1.0149 3.26714 -6.77532 
0.866539 3.26992 -6.83955 
0.865667 3.26819 -6.82324 
1.50703 4.48479 -7.28048 
0.356235 4.47798 -7.1293 
0.35737 4.47888 -7.14215 
1.14226 4.47933 -7.4002 
0.547712 4.4454 -7.19852 
1.10054 4.4235 -7.34598 
0.930925 4.42265 -7.41972 
0.965604 4.40965 -7.23177 
0.975506 4.40846 -7.41494 
1.64673 4.38622 -7.14799 
1.64819 4.38817 -7.14271 
1.05831 4.38349 -7.38674 
1.51424 4.37262 -7.12618 
1.15617 4.33631 -7.24775 
1.5459 4.28949 -7.04399 
1.49695 4.28298 -7.06388 
1.01459 4.28704 -7.29214 
1.48455 4.16817 -6.99834 
1.53383 4.16488 -6.99589 
1.44863 4.1263 -6.9965 
0.693303 4.12739 -7.1121 
0.942344 4.09892 -7.21148 
1.52998 4.08368 -6.92811 
0.625184 4.08053 -7.04511 
0.624888 4.07825 -7.04332 
1.58606 4.04624 -6.89617 
1.58779 4.04379 -6.86918 
0.856441 3.97054 -7.06775 
0.799305 3.95191 -6.99987 
0.799305 3.95191 -6.99987 
0.647972 3.94283 -6.93252 
0.715585 3.93604 -6.93008 
1.47005 3.92342 -6.82388 
1.03134 3.8871 -6.91601 
0.739437 3.87858 -6.87926 
0.548574 3.87572 -6.91346 
0.994811 3.86885 -6.93841 
0.697479 3.8635 -6.88027 
0.382071 3.85162 -7.03469 
0.93022 3.81654 -6.88148 
0.604455 3.82177 -6.88315 
1.18042 3.79073 -6.77045 
1.08492 3.7817 -6.84027 
0.637911 3.78038 -6.92158 
0.790834 3.75878 -6.82925 
1.28652 3.75065 -6.73733 
1.36252 3.73372 -6.71862 
0.393955 3.74135 -7.05723 
0.32365 3.67458 -7.15225 
0.545706 3.66504 -6.97682 
0.481872 3.64861 -7.01226 
0.351488 3.62686 -7.11031 
0.315894 3.58918 -7.1137 
0.443585 3.46943 -7.09471 
0.442753 3.46644 -7.08498 
0.981156 3.38513 -6.78186 
0.981456 3.38592 -6.78518 
1.06676 3.33727 -6.71741 
1.02829 3.31464 -6.75629 
0.16436 3.27638 -7.22647 
1.45315 4.45734 -7.22064 
0.151663 4.41886 -7.06285 
1.29083 4.32597 -7.17619 
1.21862 4.31955 -7.19537 
1.21693 4.31624 -7.19589 
1.34211 4.29579 -7.1692 
1.63339 4.23715 -7.01678 
