ply
format ascii 1.0
comment author: Caleb Adams & Jackson Parker
comment SSRL CV color PLY writer
element vertex 400
property float x
property float y
property float z
property uchar red
property uchar green
property uchar blue
end_header
0.07426892220973968505859375000000 0.80934554338455200195312500000000 -8.62407588958740234375000000000000 108 255 221
7.57374954223632812500000000000000 0.79791837930679321289062500000000 -5.33482503890991210937500000000000 108 255 221
5.91443443298339843750000000000000 0.79063731431961059570312500000000 -5.94880104064941406250000000000000 108 254 220
-3.75602912902832031250000000000000 0.78310602903366088867187500000000 -6.22561168670654296875000000000000 108 255 221
7.34714317321777343750000000000000 0.77576357126235961914062500000000 -5.46409511566162109375000000000000 108 255 221
0.30637732148170471191406250000000 0.77026945352554321289062500000000 -8.51100826263427734375000000000000 108 255 221
0.30491903424263000488281250000000 0.77100843191146850585937500000000 -8.51057624816894531250000000000000 108 255 221
1.32832336425781250000000000000000 -0.61438107490539550781250000000000 35.92977905273437500000000000000000 229 220 146
0.59672319889068603515625000000000 0.75875276327133178710937500000000 -8.36345481872558593750000000000000 108 254 220
-0.95517235994338989257812500000000 -2.07811641693115234375000000000000 21.61292648315429687500000000000000 213 225 156
-0.96861308813095092773437500000000 -2.06815242767333984375000000000000 21.50743865966796875000000000000000 213 225 156
2.27434325218200683593750000000000 0.74822854995727539062500000000000 -7.57599449157714843750000000000000 108 254 220
5.52350711822509765625000000000000 0.34756907820701599121093750000000 -7.16891098022460937500000000000000 125 250 210
5.02359628677368164062500000000000 2.54997968673706054687500000000000 2.22244954109191894531250000000000 155 241 192
3.00120186805725097656250000000000 0.73521000146865844726562500000000 -7.42050409317016601562500000000000 108 255 221
-3.89154458045959472656250000000000 0.72952389717102050781250000000000 -6.12406015396118164062500000000000 108 254 220
-3.03666710853576660156250000000000 -2.69461464881896972656250000000000 -2.22079563140869140625000000000000 185 233 173
-1.32790720462799072265625000000000 4.22848701477050781250000000000000 7.43766975402832031250000000000000 229 220 146
6.87159729003906250000000000000000 0.71216839551925659179687500000000 -5.78179121017456054687500000000000 108 254 220
-8.05846405029296875000000000000000 0.70253175497055053710937500000000 -5.28490447998046875000000000000000 108 254 220
-0.80859071016311645507812500000000 0.55879086256027221679687500000000 -5.04665470123291015625000000000000 248 215 135
-2.43224358558654785156250000000000 0.69541078805923461914062500000000 -7.43614673614501953125000000000000 108 254 220
-0.83172780275344848632812500000000 -1.07393717765808105468750000000000 40.42055511474609375000000000000000 246 117 124
2.82886934280395507812500000000000 0.69539338350296020507812500000000 -7.45336198806762695312500000000000 108 254 220
1.98859739303588867187500000000000 0.70695471763610839843750000000000 -7.66057014465332031250000000000000 108 254 220
2.59198474884033203125000000000000 0.68370383977890014648437500000000 -7.46729373931884765625000000000000 108 255 221
-3.61583161354064941406250000000000 0.68275654315948486328125000000000 -6.34963560104370117187500000000000 108 255 221
-3.61278629302978515625000000000000 0.68238765001296997070312500000000 -6.32545614242553710937500000000000 108 255 221
-7.37755870819091796875000000000000 0.67777019739151000976562500000000 -5.24623823165893554687500000000000 108 254 220
-7.37755870819091796875000000000000 0.67777019739151000976562500000000 -5.24623823165893554687500000000000 108 254 220
-0.18246556818485260009765625000000 0.67788487672805786132812500000000 -8.74216556549072265625000000000000 108 255 221
-7.49646615982055664062500000000000 0.66098296642303466796875000000000 -5.23474979400634765625000000000000 108 254 220
1.74608933925628662109375000000000 0.65117907524108886718750000000000 -7.89255332946777343750000000000000 108 255 221
-6.53424024581909179687500000000000 0.64736270904541015625000000000000 -5.42148494720458984375000000000000 108 254 220
2.79831027984619140625000000000000 0.63653439283370971679687500000000 -7.47377824783325195312500000000000 108 255 221
3.23575425148010253906250000000000 1.96840679645538330078125000000000 4.09326124191284179687500000000000 177 235 178
-2.38006067276000976562500000000000 0.64195275306701660156250000000000 -7.36207389831542968750000000000000 108 255 221
-2.38006067276000976562500000000000 0.64195275306701660156250000000000 -7.36207389831542968750000000000000 108 255 221
5.76820087432861328125000000000000 0.63712596893310546875000000000000 -6.00621747970581054687500000000000 108 254 220
4.75796985626220703125000000000000 0.63192582130432128906250000000000 -6.66104745864868164062500000000000 108 255 221
7.21312952041625976562500000000000 0.62825655937194824218750000000000 -5.69812583923339843750000000000000 108 254 220
-8.21529102325439453125000000000000 0.62289482355117797851562500000000 -5.25182628631591796875000000000000 108 255 221
-0.45983248949050903320312500000000 0.61460685729980468750000000000000 -8.70906829833984375000000000000000 108 255 221
-7.39217281341552734375000000000000 0.61360859870910644531250000000000 -5.27788209915161132812500000000000 108 254 220
-2.31067752838134765625000000000000 0.60548776388168334960937500000000 -7.37671375274658203125000000000000 108 254 220
1.42315924167633056640625000000000 0.57841819524765014648437500000000 -8.00102615356445312500000000000000 108 254 220
1.33043682575225830078125000000000 0.58124446868896484375000000000000 -7.99172353744506835937500000000000 108 254 220
4.60278415679931640625000000000000 0.57945364713668823242187500000000 -6.75211429595947265625000000000000 108 254 220
1.32171797752380371093750000000000 0.57831072807312011718750000000000 -7.91696548461914062500000000000000 108 254 220
1.32629048824310302734375000000000 0.57514548301696777343750000000000 -7.76587772369384765625000000000000 108 254 220
-6.70064449310302734375000000000000 0.55616581439971923828125000000000 -5.40609312057495117187500000000000 108 255 221
4.95681047439575195312500000000000 0.55213707685470581054687500000000 -6.58930635452270507812500000000000 108 254 220
-2.32044053077697753906250000000000 -0.71802604198455810546875000000000 -4.90523338317871093750000000000000 163 239 186
1.35540211200714111328125000000000 0.53384983539581298828125000000000 -8.06647014617919921875000000000000 108 255 221
6.72583675384521484375000000000000 0.51405400037765502929687500000000 -5.93425941467285156250000000000000 108 254 220
4.76255798339843750000000000000000 0.51485735177993774414062500000000 -6.64261102676391601562500000000000 108 255 221
4.76255798339843750000000000000000 0.51485735177993774414062500000000 -6.64261102676391601562500000000000 108 255 221
1.90988123416900634765625000000000 0.52040499448776245117187500000000 -7.70051622390747070312500000000000 108 254 220
-1.53331530094146728515625000000000 -4.02029037475585937500000000000000 -14.76434040069580078125000000000000 246 118 124
-0.37836521863937377929687500000000 0.51759546995162963867187500000000 -8.79121398925781250000000000000000 108 255 221
-3.87542629241943359375000000000000 0.51708990335464477539062500000000 -6.13028860092163085937500000000000 108 254 220
-7.41122770309448242187500000000000 0.51279646158218383789062500000000 -5.25874519348144531250000000000000 108 255 221
7.37488222122192382812500000000000 0.51084131002426147460937500000000 -5.64301824569702148437500000000000 108 254 220
-1.30179095268249511718750000000000 1.96873402595520019531250000000000 7.52710437774658203125000000000000 187 232 172
-3.18292045593261718750000000000000 0.49827185273170471191406250000000 -6.74801111221313476562500000000000 108 255 221
2.19816470146179199218750000000000 0.49088895320892333984375000000000 -7.58734083175659179687500000000000 108 255 221
-3.74395799636840820312500000000000 0.48373326659202575683593750000000 -6.24975204467773437500000000000000 108 255 221
-7.06443452835083007812500000000000 0.47971543669700622558593750000000 -5.27913236618041992187500000000000 108 254 220
-2.62090945243835449218750000000000 0.47356200218200683593750000000000 -7.15496683120727539062500000000000 108 255 221
7.23731899261474609375000000000000 0.45895665884017944335937500000000 -5.72859096527099609375000000000000 108 255 221
4.55862283706665039062500000000000 0.46459707617759704589843750000000 -6.70128202438354492187500000000000 108 254 220
0.80986416339874267578125000000000 -0.56488138437271118164062500000000 20.81710243225097656250000000000000 199 229 165
-3.56326770782470703125000000000000 2.76103782653808593750000000000000 27.55557632446289062500000000000000 246 117 124
-0.69975739717483520507812500000000 -1.29377913475036621093750000000000 30.13392829895019531250000000000000 183 233 175
6.88454675674438476562500000000000 0.45459070801734924316406250000000 -5.87654972076416015625000000000000 108 255 221
6.88962745666503906250000000000000 0.45256444811820983886718750000000 -5.87602758407592773437500000000000 108 254 220
1.78393065929412841796875000000000 0.46159029006958007812500000000000 -7.60740756988525390625000000000000 108 254 220
0.80587834119796752929687500000000 0.44969016313552856445312500000000 -8.41297149658203125000000000000000 108 255 221
5.27529859542846679687500000000000 0.42506694793701171875000000000000 -6.31834220886230468750000000000000 108 254 220
0.99283295869827270507812500000000 0.42152523994445800781250000000000 -8.32692050933837890625000000000000 108 255 221
-2.25222706794738769531250000000000 1.44321453571319580078125000000000 0.81378018856048583984375000000000 244 68 119
-5.58723449707031250000000000000000 0.39915502071380615234375000000000 -5.54360437393188476562500000000000 108 254 220
6.86703252792358398437500000000000 0.38826677203178405761718750000000 -5.89767885208129882812500000000000 108 254 220
6.64712047576904296875000000000000 0.38832882046699523925781250000000 -5.94777631759643554687500000000000 108 254 220
1.85090374946594238281250000000000 0.39001643657684326171875000000000 -7.70407915115356445312500000000000 108 254 220
-3.76096653938293457031250000000000 0.36906519532203674316406250000000 -6.30246305465698242187500000000000 108 255 221
-2.38944101333618164062500000000000 0.36438336968421936035156250000000 -7.30198812484741210937500000000000 108 255 221
5.04878044128417968750000000000000 0.97887736558914184570312500000000 41.07932662963867187500000000000000 132 248 206
1.00621104240417480468750000000000 0.35523024201393127441406250000000 -8.24544620513916015625000000000000 108 255 221
-4.02021551132202148437500000000000 0.34667667746543884277343750000000 -6.18052577972412109375000000000000 108 255 221
-0.77794438600540161132812500000000 2.15937113761901855468750000000000 28.87021255493164062500000000000000 215 224 155
4.98564767837524414062500000000000 0.32999432086944580078125000000000 -6.39964866638183593750000000000000 108 254 220
-3.82397198677062988281250000000000 0.32709482312202453613281250000000 -6.22631549835205078125000000000000 108 255 221
-3.96891641616821289062500000000000 0.30466529726982116699218750000000 -6.17150163650512695312500000000000 108 255 221
-6.77506589889526367187500000000000 0.30132150650024414062500000000000 -5.33927869796752929687500000000000 108 254 220
-2.98107361793518066406250000000000 0.29780456423759460449218750000000 -7.02623128890991210937500000000000 108 255 221
2.94442963600158691406250000000000 3.21160864830017089843750000000000 26.48749351501464843750000000000000 213 225 156
1.36366021633148193359375000000000 1.85612106323242187500000000000000 -9.41159439086914062500000000000000 176 235 179
1.25535941123962402343750000000000 0.28647229075431823730468750000000 -8.03383827209472656250000000000000 108 255 221
-6.34595298767089843750000000000000 0.28461283445358276367187500000000 -5.39551734924316406250000000000000 108 255 221
2.83070492744445800781250000000000 -0.27538606524467468261718750000000 8.93665409088134765625000000000000 160 240 188
7.47498559951782226562500000000000 0.26803007721900939941406250000000 -5.70829820632934570312500000000000 108 254 220
7.47498559951782226562500000000000 0.26803007721900939941406250000000 -5.70829820632934570312500000000000 108 254 220
6.85933494567871093750000000000000 0.26823958754539489746093750000000 -5.91888713836669921875000000000000 108 254 220
-5.45999479293823242187500000000000 0.27071556448936462402343750000000 -5.51212263107299804687500000000000 108 254 220
7.26247882843017578125000000000000 0.26095953583717346191406250000000 -5.82542085647583007812500000000000 108 255 221
-2.50413966178894042968750000000000 0.26347395777702331542968750000000 -7.22692108154296875000000000000000 108 254 220
-8.14107418060302734375000000000000 0.26343259215354919433593750000000 -5.26252698898315429687500000000000 108 255 221
-0.26732000708580017089843750000000 0.25877913832664489746093750000000 -8.87913703918457031250000000000000 108 255 221
-3.54331135749816894531250000000000 0.25561174750328063964843750000000 -6.57149410247802734375000000000000 108 255 221
-3.39943099021911621093750000000000 -3.29232621192932128906250000000000 23.61029052734375000000000000000000 233 219 144
-5.34962034225463867187500000000000 0.24559958279132843017578125000000 -5.49817085266113281250000000000000 108 254 220
2.92130470275878906250000000000000 2.49954175949096679687500000000000 0.35485583543777465820312500000000 162 239 188
-3.39609098434448242187500000000000 0.24065510928630828857421875000000 -6.60027408599853515625000000000000 108 254 220
-3.40236711502075195312500000000000 0.23888547718524932861328125000000 -6.65107583999633789062500000000000 108 255 221
1.38503062725067138671875000000000 0.23087179660797119140625000000000 -7.97698068618774414062500000000000 108 255 221
-4.09638309478759765625000000000000 0.20689004659652709960937500000000 -6.17962455749511718750000000000000 108 254 220
-5.17688274383544921875000000000000 2.83595490455627441406250000000000 2.92943143844604492187500000000000 228 221 147
1.93388140201568603515625000000000 0.20289389789104461669921875000000 -7.55830383300781250000000000000000 108 255 221
-4.11292934417724609375000000000000 0.20097552239894866943359375000000 -6.17609167098999023437500000000000 108 255 221
-6.38663864135742187500000000000000 0.20086471736431121826171875000000 -5.37440013885498046875000000000000 108 254 220
-2.22401833534240722656250000000000 1.71342504024505615234375000000000 29.45215606689453125000000000000000 232 220 145
4.57348871231079101562500000000000 0.19241501390933990478515625000000 -6.53857898712158203125000000000000 108 255 221
0.46746701002120971679687500000000 0.19401815533638000488281250000000 -8.70925807952880859375000000000000 108 255 221
0.46746701002120971679687500000000 0.19401815533638000488281250000000 -8.70925807952880859375000000000000 108 255 221
-4.11187410354614257812500000000000 0.19669261574745178222656250000000 -6.07079601287841796875000000000000 108 255 221
-6.23595476150512695312500000000000 0.18155696988105773925781250000000 -5.62735939025878906250000000000000 108 254 220
-4.43451499938964843750000000000000 -2.36924719810485839843750000000000 21.85802841186523437500000000000000 246 120 124
0.65300685167312622070312500000000 0.18565773963928222656250000000000 -8.59449768066406250000000000000000 108 255 221
7.14879322052001953125000000000000 0.17876347899436950683593750000000 -5.88832187652587890625000000000000 108 254 220
0.82019573450088500976562500000000 0.17776016891002655029296875000000 -8.46649551391601562500000000000000 108 255 221
-3.25401592254638671875000000000000 -0.03744190186262130737304687500000 -25.08158493041992187500000000000000 157 241 191
-4.40051889419555664062500000000000 0.15902757644653320312500000000000 -5.86998271942138671875000000000000 108 255 221
-5.33808374404907226562500000000000 0.15072120726108551025390625000000 -5.50808668136596679687500000000000 108 255 221
6.72926712036132812500000000000000 0.10891353338956832885742187500000 -5.99768733978271484375000000000000 108 254 220
-5.04859542846679687500000000000000 0.11723700165748596191406250000000 -5.56616687774658203125000000000000 108 255 221
-5.04859542846679687500000000000000 0.11723700165748596191406250000000 -5.56616687774658203125000000000000 108 255 221
-5.16365385055541992187500000000000 0.10885747522115707397460937500000 -5.52377319335937500000000000000000 108 255 221
-4.21916389465332031250000000000000 -1.07329559326171875000000000000000 22.52487564086914062500000000000000 204 228 162
-7.65011930465698242187500000000000 -0.10128650069236755371093750000000 -0.03330055624246597290039062500000 115 253 216
1.52777910232543945312500000000000 -3.09057974815368652343750000000000 38.88954544067382812500000000000000 246 116 124
1.41519665718078613281250000000000 0.09250913560390472412109375000000 -7.91621732711791992187500000000000 108 255 221
3.22054290771484375000000000000000 -0.02977942861616611480712890625000 -7.13506221771240234375000000000000 207 227 160
-7.64487171173095703125000000000000 0.06686110794544219970703125000000 -5.32211780548095703125000000000000 108 255 221
-3.41149520874023437500000000000000 0.05870916321873664855957031250000 -6.74169683456420898437500000000000 108 255 221
-1.53738844394683837890625000000000 -2.80402445793151855468750000000000 4.77098035812377929687500000000000 204 227 162
-3.00580263137817382812500000000000 0.05449961870908737182617187500000 -7.02031373977661132812500000000000 108 255 221
-4.25199079513549804687500000000000 0.05028702318668365478515625000000 -6.02121496200561523437500000000000 108 254 220
-5.29533958435058593750000000000000 0.05022134259343147277832031250000 -5.50621795654296875000000000000000 108 255 221
1.36438524723052978515625000000000 0.03808905556797981262207031250000 -7.88802242279052734375000000000000 108 255 221
4.69631290435791015625000000000000 0.03357844799757003784179687500000 -6.38591718673706054687500000000000 108 254 220
-3.91104316711425781250000000000000 0.03059872612357139587402343750000 -6.32813882827758789062500000000000 108 254 220
-5.56458520889282226562500000000000 0.03351283818483352661132812500000 -5.47106313705444335937500000000000 108 255 221
-5.56407213211059570312500000000000 0.03367200493812561035156250000000 -5.47087574005126953125000000000000 108 255 221
6.78653240203857421875000000000000 0.02518013864755630493164062500000 -5.97429037094116210937500000000000 108 254 220
6.78653240203857421875000000000000 0.02518013864755630493164062500000 -5.97429037094116210937500000000000 108 254 220
6.70810651779174804687500000000000 0.02237373404204845428466796875000 -6.00832033157348632812500000000000 108 254 220
0.55141538381576538085937500000000 0.01678470894694328308105468750000 -8.57523155212402343750000000000000 108 255 221
-2.41709971427917480468750000000000 1.18281507492065429687500000000000 1.08956813812255859375000000000000 244 65 119
4.29703330993652343750000000000000 -3.99690413475036621093750000000000 9.35744762420654296875000000000000 208 226 159
-1.50692045688629150390625000000000 -0.12916179001331329345703125000000 -21.00477790832519531250000000000000 111 253 218
-3.85772466659545898437500000000000 -0.00829321797937154769897460937500 -6.40722751617431640625000000000000 108 255 221
-3.85226893424987792968750000000000 -0.00831363070756196975708007812500 -6.36333036422729492187500000000000 108 255 221
-2.25287103652954101562500000000000 0.38695690035820007324218750000000 39.84474563598632812500000000000000 235 219 143
-5.12117433547973632812500000000000 -0.01670024357736110687255859375000 -5.54316473007202148437500000000000 108 255 221
-6.69224548339843750000000000000000 -0.01687371544539928436279296875000 -5.34353923797607421875000000000000 108 254 220
-1.57537126541137695312500000000000 -0.91121512651443481445312500000000 7.88910818099975585937500000000000 165 238 185
-5.78001880645751953125000000000000 3.85136961936950683593750000000000 11.42898368835449218750000000000000 241 217 139
1.63889110088348388671875000000000 -0.02960736118257045745849609375000 -7.58975028991699218750000000000000 108 255 221
-5.59269905090332031250000000000000 -0.04186195880174636840820312500000 -5.47021341323852539062500000000000 108 255 221
-0.70589601993560791015625000000000 3.37099909782409667968750000000000 4.12491655349731445312500000000000 191 231 169
-5.47926473617553710937500000000000 -0.05025150254368782043457031250000 -5.47315168380737304687500000000000 108 255 221
3.35798573493957519531250000000000 -4.07969951629638671875000000000000 -27.55426025390625000000000000000000 235 219 143
7.21281242370605468750000000000000 -0.05895471572875976562500000000000 -5.88681364059448242187500000000000 108 255 221
7.32215642929077148437500000000000 -0.06713487952947616577148437500000 -5.80948305130004882812500000000000 108 254 220
-1.30974352359771728515625000000000 -3.72534346580505371093750000000000 -39.22100067138671875000000000000000 246 115 124
-8.08300304412841796875000000000000 -0.06646384298801422119140625000000 -5.27857828140258789062500000000000 108 255 221
-7.79325294494628906250000000000000 -0.07538216561079025268554687500000 -5.28284025192260742187500000000000 108 255 221
1.03213798999786376953125000000000 -0.08876861631870269775390625000000 -8.32990360260009765625000000000000 108 255 221
-2.77257847785949707031250000000000 -0.09248217940330505371093750000000 -7.12827634811401367187500000000000 108 254 220
-5.69536209106445312500000000000000 -0.11160481721162796020507812500000 -5.44712114334106445312500000000000 108 255 221
-5.85863447189331054687500000000000 -0.10883292555809020996093750000000 -5.44222831726074218750000000000000 108 255 221
6.52747392654418945312500000000000 -0.11742053925991058349609375000000 -6.10662221908569335937500000000000 108 254 220
1.16815340518951416015625000000000 -0.11755479127168655395507812500000 -7.97819852828979492187500000000000 108 255 221
-2.53963661193847656250000000000000 -0.11490856111049652099609375000000 -7.28742074966430664062500000000000 108 255 221
-5.55784845352172851562500000000000 -0.11724152415990829467773437500000 -5.48883342742919921875000000000000 108 254 220
7.34014606475830078125000000000000 -0.12862670421600341796875000000000 -5.91360759735107421875000000000000 108 254 220
7.35154294967651367187500000000000 -0.12633508443832397460937500000000 -5.75842761993408203125000000000000 108 255 221
-2.20320749282836914062500000000000 -0.14367923140525817871093750000000 -7.43871593475341796875000000000000 108 254 220
-2.20320701599121093750000000000000 -0.13520701229572296142578125000000 -7.43852233886718750000000000000000 108 255 221
-6.91656160354614257812500000000000 -0.13119733333587646484375000000000 -5.30735492706298828125000000000000 108 254 220
-8.08332157135009765625000000000000 -0.14212526381015777587890625000000 -5.28120565414428710937500000000000 108 255 221
7.16545009613037109375000000000000 -0.15364775061607360839843750000000 -5.89876508712768554687500000000000 108 254 220
-0.64495694637298583984375000000000 -1.86908042430877685546875000000000 9.90258026123046875000000000000000 244 63 119
-3.73815608024597167968750000000000 -0.15667210519313812255859375000000 -6.55216550827026367187500000000000 108 254 220
-2.29588508605957031250000000000000 -0.15982893109321594238281250000000 -7.41744947433471679687500000000000 108 255 221
-0.39868408441543579101562500000000 -0.92523258924484252929687500000000 8.75942993164062500000000000000000 165 239 186
7.00556373596191406250000000000000 -0.17338262498378753662109375000000 -5.93182802200317382812500000000000 108 254 220
7.44118881225585937500000000000000 -0.18419291079044342041015625000000 -5.70329952239990234375000000000000 108 254 220
-0.63124614953994750976562500000000 2.01635694503784179687500000000000 -39.60531997680664062500000000000000 204 228 162
1.79043507575988769531250000000000 -0.18781901895999908447265625000000 -7.36161231994628906250000000000000 108 255 221
-3.19422698020935058593750000000000 -0.18565359711647033691406250000000 -6.88187074661254882812500000000000 108 255 221
-3.90090441703796386718750000000000 -0.18131688237190246582031250000000 -6.42248535156250000000000000000000 108 254 220
4.63505220413208007812500000000000 -0.19860127568244934082031250000000 -6.38435983657836914062500000000000 108 254 220
-1.57096242904663085937500000000000 1.03823983669281005859375000000000 -6.75476360321044921875000000000000 173 236 181
-3.76337599754333496093750000000000 1.01524507999420166015625000000000 25.91574859619140625000000000000000 213 225 156
-2.72044253349304199218750000000000 -0.20452764630317687988281250000000 -7.18110466003417968750000000000000 108 255 221
-2.78729844093322753906250000000000 0.49431845545768737792968750000000 34.56793212890625000000000000000000 223 222 150
-4.86936330795288085937500000000000 -0.21776342391967773437500000000000 -5.62336874008178710937500000000000 108 254 220
-7.09048032760620117187500000000000 -0.21756982803344726562500000000000 -5.26932716369628906250000000000000 108 255 221
1.14264333248138427734375000000000 -0.22256959974765777587890625000000 -7.88994312286376953125000000000000 108 254 220
-2.59174084663391113281250000000000 -0.23541909456253051757812500000000 -7.27897310256958007812500000000000 108 254 220
-7.62853145599365234375000000000000 -0.23835463821887969970703125000000 -5.33209323883056640625000000000000 108 255 221
-7.62052154541015625000000000000000 -0.26470556855201721191406250000000 -5.28928613662719726562500000000000 108 254 220
-1.25677514076232910156250000000000 -0.25281968712806701660156250000000 -8.12949466705322265625000000000000 108 254 220
-4.36878776550292968750000000000000 -0.24280527234077453613281250000000 -6.02918195724487304687500000000000 108 255 221
-8.22470855712890625000000000000000 -0.24255236983299255371093750000000 -5.30104589462280273437500000000000 108 255 221
4.45827627182006835937500000000000 -0.25735941529273986816406250000000 -6.44255828857421875000000000000000 108 254 220
-1.26149976253509521484375000000000 -0.25561943650245666503906250000000 -8.08768558502197265625000000000000 108 254 220
-2.89729523658752441406250000000000 -0.25331050157546997070312500000000 -7.08345556259155273437500000000000 108 255 221
6.90980529785156250000000000000000 -0.26835101842880249023437500000000 -5.94976282119750976562500000000000 108 254 220
6.90980529785156250000000000000000 -0.26835101842880249023437500000000 -5.94976282119750976562500000000000 108 254 220
1.28191709518432617187500000000000 -0.27220657467842102050781250000000 -7.74049520492553710937500000000000 108 255 221
-7.24219179153442382812500000000000 -0.26781645417213439941406250000000 -5.30342340469360351562500000000000 108 254 220
6.69365072250366210937500000000000 -0.28638184070587158203125000000000 -6.11182212829589843750000000000000 108 255 221
1.18206155300140380859375000000000 -4.50211477279663085937500000000000 36.03915405273437500000000000000000 246 109 123
7.08117008209228515625000000000000 -0.29893979430198669433593750000000 -5.89149618148803710937500000000000 108 254 220
-3.34482288360595703125000000000000 -0.29676440358161926269531250000000 -6.85129070281982421875000000000000 108 255 221
-4.98944664001464843750000000000000 -0.29589268565177917480468750000000 -5.55978441238403320312500000000000 108 255 221
-6.44173574447631835937500000000000 -0.29573825001716613769531250000000 -5.37180805206298828125000000000000 108 254 220
5.22946739196777343750000000000000 -0.26054790616035461425781250000000 -6.20527219772338867187500000000000 151 242 194
-3.86300897598266601562500000000000 -0.31062433123588562011718750000000 -6.57790708541870117187500000000000 108 255 221
-7.40563631057739257812500000000000 -0.30683219432830810546875000000000 -5.26658391952514648437500000000000 108 254 220
-2.52016901969909667968750000000000 0.53225225210189819335937500000000 35.05124664306640625000000000000000 228 221 147
3.91689038276672363281250000000000 1.00416445732116699218750000000000 -4.69637680053710937500000000000000 223 222 150
0.85940712690353393554687500000000 -0.32291543483734130859375000000000 -8.04345989227294921875000000000000 108 255 221
-7.03844547271728515625000000000000 -0.31801074743270874023437500000000 -5.31090116500854492187500000000000 108 254 220
-7.28945016860961914062500000000000 -0.31947854161262512207031250000000 -5.30183458328247070312500000000000 108 255 221
-7.30628108978271484375000000000000 -0.31751301884651184082031250000000 -5.38945627212524414062500000000000 108 255 221
6.48899984359741210937500000000000 -0.33273380994796752929687500000000 -6.30513668060302734375000000000000 108 254 220
-0.97777432203292846679687500000000 -2.29098010063171386718750000000000 -36.69583129882812500000000000000000 167 238 184
-2.97331762313842773437500000000000 -0.32919132709503173828125000000000 -7.02250432968139648437500000000000 108 254 220
6.14927530288696289062500000000000 -0.34269699454307556152343750000000 -6.26326417922973632812500000000000 108 255 221
4.08756923675537109375000000000000 -0.34684154391288757324218750000000 -6.48270845413208007812500000000000 108 255 221
-4.58601140975952148437500000000000 -0.34064409136772155761718750000000 -5.69091749191284179687500000000000 108 254 220
-4.63612604141235351562500000000000 -0.34047740697860717773437500000000 -5.45122289657592773437500000000000 108 254 220
3.66939687728881835937500000000000 -0.35538300871849060058593750000000 -6.62397193908691406250000000000000 108 254 220
-7.22275924682617187500000000000000 -0.35985887050628662109375000000000 -5.29385328292846679687500000000000 108 254 220
-7.23076009750366210937500000000000 -0.35964342951774597167968750000000 -5.35407209396362304687500000000000 108 255 221
6.83853912353515625000000000000000 -0.36644440889358520507812500000000 -6.05319833755493164062500000000000 108 255 221
4.99737977981567382812500000000000 -0.38301149010658264160156250000000 -6.20225191116333007812500000000000 108 254 220
-3.85091376304626464843750000000000 -0.37719461321830749511718750000000 -6.56532001495361328125000000000000 108 255 221
1.27575373649597167968750000000000 0.37315034866333007812500000000000 37.53560256958007812500000000000000 229 221 147
4.43928718566894531250000000000000 -0.38781878352165222167968750000000 -6.41224288940429687500000000000000 108 255 221
-4.72198200225830078125000000000000 -0.39636504650115966796875000000000 -5.64789819717407226562500000000000 108 254 220
6.15201854705810546875000000000000 1.04937779903411865234375000000000 71.31188201904296875000000000000000 164 239 186
7.61516809463500976562500000000000 0.93987435102462768554687500000000 -2.59114527702331542968750000000000 152 242 193
-5.02638626098632812500000000000000 -0.61090856790542602539062500000000 16.55270004272460937500000000000000 167 238 184
1.72658789157867431640625000000000 -2.78635311126708984375000000000000 34.24764633178710937500000000000000 235 219 143
4.21786165237426757812500000000000 -0.43914183974266052246093750000000 -6.43732690811157226562500000000000 108 255 221
-3.83969044685363769531250000000000 -0.43922305107116699218750000000000 -6.49711227416992187500000000000000 108 254 220
4.94498682022094726562500000000000 -0.46411296725273132324218750000000 -6.26553964614868164062500000000000 108 254 220
-4.46105146408081054687500000000000 -0.45794868469238281250000000000000 -5.71578693389892578125000000000000 108 254 220
7.35729646682739257812500000000000 -0.47470918297767639160156250000000 -5.71703910827636718750000000000000 108 254 220
7.18183326721191406250000000000000 -0.47202065587043762207031250000000 -5.83778333663940429687500000000000 108 254 220
-8.17506313323974609375000000000000 -0.46835798025131225585937500000000 -5.30535602569580078125000000000000 108 255 221
4.16453552246093750000000000000000 -0.47838571667671203613281250000000 -6.47040510177612304687500000000000 108 254 220
-1.52912342548370361328125000000000 0.52804458141326904296875000000000 33.36354827880859375000000000000000 226 221 148
0.48911044001579284667968750000000 -0.47508174180984497070312500000000 -8.48909854888916015625000000000000 108 254 220
-7.45971107482910156250000000000000 -0.48814952373504638671875000000000 -5.27446651458740234375000000000000 108 254 220
1.28381872177124023437500000000000 -0.49924480915069580078125000000000 -7.56984996795654296875000000000000 108 255 221
1.28381872177124023437500000000000 -0.49924480915069580078125000000000 -7.56984996795654296875000000000000 108 255 221
-6.54431247711181640625000000000000 -0.49660074710845947265625000000000 -5.34834241867065429687500000000000 108 254 220
-7.02944755554199218750000000000000 -0.50484746694564819335937500000000 -5.30032253265380859375000000000000 108 254 220
1.00070118904113769531250000000000 -0.30099314451217651367187500000000 45.73381423950195312500000000000000 113 253 217
7.28543996810913085937500000000000 -0.52501523494720458984375000000000 -5.70873689651489257812500000000000 108 254 220
7.29329967498779296875000000000000 -0.52152365446090698242187500000000 -5.62766075134277343750000000000000 108 255 221
-6.71813392639160156250000000000000 -0.51854127645492553710937500000000 -5.42405891418457031250000000000000 108 254 220
2.50922822952270507812500000000000 -0.53473687171936035156250000000000 -6.78959465026855468750000000000000 108 254 220
6.99826955795288085937500000000000 -0.54255938529968261718750000000000 -5.84037160873413085937500000000000 108 254 220
-8.92398166656494140625000000000000 1.73562860488891601562500000000000 -103.19234466552734375000000000000000 172 236 181
5.69236946105957031250000000000000 -0.53968769311904907226562500000000 -6.24388408660888671875000000000000 108 254 220
2.84468722343444824218750000000000 -0.53993159532546997070312500000000 -6.71095085144042968750000000000000 108 255 221
1.86035192012786865234375000000000 -0.54629009962081909179687500000000 -7.08988523483276367187500000000000 108 254 220
0.19007787108421325683593750000000 -0.54261988401412963867187500000000 -8.59242820739746093750000000000000 108 255 221
1.06816339492797851562500000000000 -0.55547612905502319335937500000000 -7.67087554931640625000000000000000 108 255 221
1.06710088253021240234375000000000 -0.55405253171920776367187500000000 -7.68028593063354492187500000000000 108 254 220
-5.85611152648925781250000000000000 -0.54363262653350830078125000000000 -5.48183393478393554687500000000000 108 254 220
-4.49803113937377929687500000000000 -0.56398785114288330078125000000000 -5.67192697525024414062500000000000 108 254 220
4.70383024215698242187500000000000 -4.02475214004516601562500000000000 3.98425316810607910156250000000000 246 110 124
2.52518391609191894531250000000000 -1.43478822708129882812500000000000 -25.38591003417968750000000000000000 156 241 191
-3.54358410835266113281250000000000 -0.57420873641967773437500000000000 -6.61287021636962890625000000000000 108 255 221
-6.79557180404663085937500000000000 -0.56911092996597290039062500000000 -5.33962726593017578125000000000000 108 254 220
-7.49544429779052734375000000000000 -0.58576846122741699218750000000000 -5.29577302932739257812500000000000 108 254 220
-3.35359501838684082031250000000000 3.42540287971496582031250000000000 16.35524177551269531250000000000000 227 221 148
7.29535484313964843750000000000000 -0.59758818149566650390625000000000 -5.72575664520263671875000000000000 108 254 220
-4.83657932281494140625000000000000 -0.59454184770584106445312500000000 -5.56362724304199218750000000000000 108 254 220
-6.01406240463256835937500000000000 -0.59294468164443969726562500000000 -5.41605138778686523437500000000000 108 254 220
-7.05647134780883789062500000000000 -0.59420216083526611328125000000000 -5.33087825775146484375000000000000 108 254 220
7.13068532943725585937500000000000 -0.60606384277343750000000000000000 -5.79497814178466796875000000000000 108 254 220
0.79972529411315917968750000000000 -0.62043344974517822265625000000000 -7.95158720016479492187500000000000 108 255 221
-4.55858421325683593750000000000000 -0.61162155866622924804687500000000 -5.65069246292114257812500000000000 108 254 220
-8.09961509704589843750000000000000 -0.61461150646209716796875000000000 -5.27426147460937500000000000000000 108 255 221
7.40182876586914062500000000000000 -0.62818765640258789062500000000000 -5.64055252075195312500000000000000 108 254 220
-5.39399719238281250000000000000000 -0.62237066030502319335937500000000 -5.47529458999633789062500000000000 108 255 221
-5.86143636703491210937500000000000 -0.62225717306137084960937500000000 -5.44151067733764648437500000000000 108 254 220
-5.85603904724121093750000000000000 -0.62237393856048583984375000000000 -5.44176101684570312500000000000000 108 255 221
5.59265279769897460937500000000000 -0.63943547010421752929687500000000 -6.25649261474609375000000000000000 108 255 221
2.46311140060424804687500000000000 -0.66345626115798950195312500000000 -6.76901960372924804687500000000000 108 255 221
-6.72127962112426757812500000000000 -0.65169274806976318359375000000000 -5.34194660186767578125000000000000 108 254 220
-4.95018386840820312500000000000000 -0.67267102003097534179687500000000 -5.54726219177246093750000000000000 108 255 221
-3.26480412483215332031250000000000 -0.68020522594451904296875000000000 -6.73674392700195312500000000000000 108 254 220
-4.76308393478393554687500000000000 -0.68164521455764770507812500000000 -5.63954973220825195312500000000000 108 255 221
-7.02649688720703125000000000000000 -0.68072044849395751953125000000000 -5.30004787445068359375000000000000 108 255 221
2.00593233108520507812500000000000 -0.69542819261550903320312500000000 -6.93456315994262695312500000000000 108 255 221
0.69224804639816284179687500000000 -0.69730067253112792968750000000000 -7.90402841567993164062500000000000 108 255 221
7.27632761001586914062500000000000 -0.69657093286514282226562500000000 -5.59510707855224609375000000000000 108 255 221
-5.36945152282714843750000000000000 -0.69768160581588745117187500000000 -5.47696161270141601562500000000000 108 255 221
-7.91716194152832031250000000000000 -0.71076273918151855468750000000000 -5.26518249511718750000000000000000 108 255 221
4.02882146835327148437500000000000 0.65807968378067016601562500000000 -33.77957916259765625000000000000000 202 228 163
0.38627278804779052734375000000000 -0.73671174049377441406250000000000 -8.24311637878417968750000000000000 108 255 221
-4.38682365417480468750000000000000 -0.73219943046569824218750000000000 -5.69594001770019531250000000000000 108 255 221
-1.70951247215270996093750000000000 -1.05662977695465087890625000000000 -39.45894622802734375000000000000000 246 113 124
3.77686500549316406250000000000000 1.98089110851287841796875000000000 -26.00201797485351562500000000000000 194 230 168
7.14408874511718750000000000000000 -0.75505542755126953125000000000000 -5.63599109649658203125000000000000 108 255 221
1.00140452384948730468750000000000 3.72741293907165527343750000000000 38.80165481567382812500000000000000 246 216 136
-7.34500026702880859375000000000000 -0.36163130402565002441406250000000 -5.15462160110473632812500000000000 126 249 209
2.62880373001098632812500000000000 -0.79539328813552856445312500000000 -6.68194961547851562500000000000000 108 255 221
0.27088066935539245605468750000000 2.37601137161254882812500000000000 -25.31671142578125000000000000000000 246 117 124
-5.70579671859741210937500000000000 -0.78968715667724609375000000000000 -5.44647979736328125000000000000000 108 254 220
-5.70579671859741210937500000000000 -0.78968715667724609375000000000000 -5.44647979736328125000000000000000 108 254 220
-0.00765359122306108474731445312500 -0.65614885091781616210937500000000 7.52359628677368164062500000000000 112 253 218
-0.14549200236797332763671875000000 0.23293551802635192871093750000000 38.98592376708984375000000000000000 143 245 199
6.48525667190551757812500000000000 -0.83188402652740478515625000000000 -6.45580816268920898437500000000000 108 254 220
1.73978352546691894531250000000000 -0.83196526765823364257812500000000 -7.03729820251464843750000000000000 108 255 221
-3.29424118995666503906250000000000 -0.83403766155242919921875000000000 -6.61684322357177734375000000000000 108 255 221
-3.28793501853942871093750000000000 -0.83077526092529296875000000000000 -6.58112192153930664062500000000000 108 254 220
-4.75451231002807617187500000000000 -0.83176445960998535156250000000000 -5.53436851501464843750000000000000 108 254 220
-4.75451231002807617187500000000000 -0.83176445960998535156250000000000 -5.53436851501464843750000000000000 108 254 220
-7.28550910949707031250000000000000 -0.82859575748443603515625000000000 -5.29122161865234375000000000000000 108 254 220
-1.62705945968627929687500000000000 -2.06597328186035156250000000000000 17.83526420593261718750000000000000 182 234 175
6.60728073120117187500000000000000 -0.85311549901962280273437500000000 -6.41497039794921875000000000000000 108 254 220
2.69071602821350097656250000000000 -0.85917592048645019531250000000000 -6.63323450088500976562500000000000 108 255 221
-6.91453361511230468750000000000000 -0.85363703966140747070312500000000 -5.32829904556274414062500000000000 108 254 220
6.06269931793212890625000000000000 -0.86982381343841552734375000000000 -6.55315971374511718750000000000000 108 255 221
5.11765193939208984375000000000000 1.19050347805023193359375000000000 -0.20793314278125762939453125000000 201 228 164
-4.31027078628540039062500000000000 -0.87117028236389160156250000000000 -5.69807815551757812500000000000000 108 254 220
-7.35717535018920898437500000000000 -0.87041848897933959960937500000000 -5.31962776184082031250000000000000 108 254 220
-1.08724641799926757812500000000000 0.24854359030723571777343750000000 32.67166900634765625000000000000000 227 221 148
-7.08256530761718750000000000000000 -0.87874644994735717773437500000000 -5.32215547561645507812500000000000 108 254 220
-2.71721243858337402343750000000000 -0.95610582828521728515625000000000 28.52430915832519531250000000000000 200 229 164
-8.07646846771240234375000000000000 -0.88242322206497192382812500000000 -5.34137344360351562500000000000000 108 255 221
1.53336966037750244140625000000000 -0.89942640066146850585937500000000 -7.14138936996459960937500000000000 108 255 221
-0.05063670501112937927246093750000 -0.89941281080245971679687500000000 -8.44628334045410156250000000000000 108 255 221
6.47780323028564453125000000000000 -0.90664118528366088867187500000000 -6.59638071060180664062500000000000 108 254 220
6.48467302322387695312500000000000 -0.90956002473831176757812500000000 -6.64925479888916015625000000000000 108 255 221
4.67470312118530273437500000000000 -0.91028302907943725585937500000000 -6.33268785476684570312500000000000 108 255 221
4.67642116546630859375000000000000 -0.90889662504196166992187500000000 -6.33285093307495117187500000000000 108 255 221
0.90033698081970214843750000000000 -0.90903389453887939453125000000000 -7.68267965316772460937500000000000 108 255 221
-3.12862849235534667968750000000000 -0.90386211872100830078125000000000 -6.60403823852539062500000000000000 108 254 220
-0.22094033658504486083984375000000 -4.12622499465942382812500000000000 38.89228820800781250000000000000000 230 220 146
6.64884996414184570312500000000000 -0.91511136293411254882812500000000 -6.28024148941040039062500000000000 108 255 221
6.51931858062744140625000000000000 -0.91980582475662231445312500000000 -6.50944709777832031250000000000000 108 255 221
5.30894374847412109375000000000000 -0.92036110162734985351562500000000 -6.49300527572631835937500000000000 108 255 221
-7.80209159851074218750000000000000 -0.91581255197525024414062500000000 -5.32726335525512695312500000000000 108 255 221
4.68491268157958984375000000000000 -1.01660740375518798828125000000000 -10.13063526153564453125000000000000 118 252 214
5.06171083450317382812500000000000 -0.92743891477584838867187500000000 -6.42853832244873046875000000000000 108 255 221
-7.13096523284912109375000000000000 -0.92062938213348388671875000000000 -5.35955333709716796875000000000000 108 254 220
-7.13096523284912109375000000000000 -0.92062938213348388671875000000000 -5.35955333709716796875000000000000 108 254 220
-5.00313091278076171875000000000000 -0.92944139242172241210937500000000 -5.52830123901367187500000000000000 108 254 220
-6.59452295303344726562500000000000 -0.92903757095336914062500000000000 -5.36725711822509765625000000000000 108 254 220
-0.75198698043823242187500000000000 -0.95875382423400878906250000000000 -8.26643753051757812500000000000000 108 254 220
6.75342798233032226562500000000000 -0.97288447618484497070312500000000 -6.24621105194091796875000000000000 108 254 220
-3.16941857337951660156250000000000 -0.97216659784317016601562500000000 -6.60486793518066406250000000000000 108 255 221
-7.34061050415039062500000000000000 -0.96790111064910888671875000000000 -5.29321479797363281250000000000000 108 255 221
5.59742736816406250000000000000000 -0.97877436876296997070312500000000 -6.59079074859619140625000000000000 108 255 221
1.60678660869598388671875000000000 -0.98069232702255249023437500000000 -7.05703878402709960937500000000000 108 255 221
1.60678660869598388671875000000000 -0.98069232702255249023437500000000 -7.05703878402709960937500000000000 108 255 221
0.39537122845649719238281250000000 -0.98174536228179931640625000000000 -8.13308334350585937500000000000000 108 255 221
0.15044911205768585205078125000000 -0.98826271295547485351562500000000 -8.37278461456298828125000000000000 108 254 220
-8.18439579010009765625000000000000 -0.97446495294570922851562500000000 -5.35386466979980468750000000000000 108 254 220
-8.18439579010009765625000000000000 -0.97446495294570922851562500000000 -5.35386466979980468750000000000000 108 254 220
7.38650226593017578125000000000000 -0.98787832260131835937500000000000 -5.45625972747802734375000000000000 108 254 220
5.82746410369873046875000000000000 -0.99067586660385131835937500000000 -6.62647008895874023437500000000000 108 254 220
-7.72843980789184570312500000000000 -0.98283749818801879882812500000000 -5.36027097702026367187500000000000 108 254 220
-2.23568081855773925781250000000000 -1.00057995319366455078125000000000 -7.26189470291137695312500000000000 108 254 220
-7.15213155746459960937500000000000 -0.98763030767440795898437500000000 -5.32844686508178710937500000000000 108 254 220
-3.22584772109985351562500000000000 -0.12864808738231658935546875000000 25.13368988037109375000000000000000 200 229 164
-3.74100494384765625000000000000000 -1.00317800045013427734375000000000 -6.01044988632202148437500000000000 108 255 221
-5.81802940368652343750000000000000 -0.99620389938354492187500000000000 -5.44199562072753906250000000000000 108 254 220
-6.06082773208618164062500000000000 -0.99612480401992797851562500000000 -5.40559768676757812500000000000000 108 254 220
-7.01593780517578125000000000000000 -0.99866509437561035156250000000000 -5.33170366287231445312500000000000 108 254 220
2.89445638656616210937500000000000 1.51463437080383300781250000000000 54.69644546508789062500000000000000 200 229 164
-6.11686992645263671875000000000000 -1.01843619346618652343750000000000 -5.41362380981445312500000000000000 108 255 221
-5.17758703231811523437500000000000 -1.02707207202911376953125000000000 -5.51242733001708984375000000000000 108 254 220
-5.29264450073242187500000000000000 -1.02697277069091796875000000000000 -5.48569393157958984375000000000000 108 254 220
1.59241199493408203125000000000000 -1.04488527774810791015625000000000 -7.04817152023315429687500000000000 108 255 221
-6.93072319030761718750000000000000 -1.05171597003936767578125000000000 -5.33426380157470703125000000000000 108 254 220
-0.04293876886367797851562500000000 -1.06770777702331542968750000000000 -8.29662609100341796875000000000000 108 255 221
-3.18199634552001953125000000000000 -1.05752086639404296875000000000000 -6.50844478607177734375000000000000 108 254 220
