ply
format ascii 1.0
comment author: Caleb Adams & Jackson Parker
comment SSRL CV simple PLY writer
element vertex 1793
property float x
property float y
property float z
end_header
-4970.61 -3646.56 -346.069
-4970.61 -3646.56 -346.069
-4578.7 -3650.85 -300.827
-5138.52 -3661.17 -321.289
-4179.51 -3686.84 -162.216
-5171.3 -3685.81 -314.407
-4444.46 -3690.31 -237.945
-4363.17 -3705.04 -194.519
-4595.12 -3738.99 -297.134
-4219.99 -3743.82 -204.071
-4089.17 -3758.15 -196.563
-4089.17 -3758.15 -196.563
-4570.66 -3765.66 -292.083
-4806.58 -3777.2 -385.91
-4492.78 -3790.18 -304.473
-4040.23 -3795.16 -186.599
-4941.5 -3803.89 -387.664
-4496.98 -3822.98 -298.034
-4506.18 -3825.91 -204.986
-4113.69 -3835.99 -201.172
-4027.76 -3835.95 -204.712
-4027.76 -3835.95 -204.712
-4667.84 -3842.86 -368.85
-4480.56 -3855.74 -301.895
-5020.27 -3870.35 -295.181
-4006.86 -3876.59 -236.206
-4137.99 -3885.09 -222.061
-4137.99 -3885.09 -222.061
-4667.81 -3885.88 -369.201
-4101.38 -3899.53 -199.386
-4990.82 -3902.51 -357.894
-4594.63 -3918.88 -337.982
-4962.51 -3923.2 -337.921
-3962.15 -3938.15 -223.449
-3994.65 -3948.23 -251.77
-3994.65 -3948.23 -251.77
-4831.34 -3951.51 -369.995
-4019.32 -3962.7 -236.48
-5126.28 -3972.6 -318.939
-4410.81 -3990.65 -326.11
-4424.62 -3994.09 -186.111
-4154.36 -3993.67 -218.826
-4436.41 -3997.75 -229.232
-4529.06 -4002.75 -352.188
-4676.07 -4008.89 -357.788
-4574.77 -4017.73 -286.529
-3921.29 -4057.02 -222.061
-4966.91 -4058.69 -311.752
-5019.53 -4074.65 -355.941
-4545.42 -4092.88 -348.938
-4158.54 -4092.1 -212.494
-4223.94 -4096.14 -218.292
-4403.13 -4116.06 -277.511
-4236.15 -4130.95 -220.962
-3974.25 -4147.04 -241.592
-4631.14 -4154.3 -361.496
-4533.22 -4158.47 -346.222
-4443.92 -4181.77 -279.586
-4109.1 -4187.97 -248.001
-4387.22 -4206.64 -239.929
-4999.23 -4224.25 -345.062
-4999.23 -4224.25 -345.062
-4937.27 -4229.91 -394.271
-4753.26 -4241.9 -406.066
-3965.98 -4243.35 -235.061
-4162.09 -4280.03 -267.273
-4680.29 -4289.6 -351.196
-4975.24 -4323.09 -299.865
-4676.09 -4353.04 -357.528
-4476.64 -4361.94 -287.429
-4149.85 -4362.01 -264.877
-4056 -4362.17 -244.217
-4982.82 -4371.72 -348.77
-4023.83 -4381.21 -190.185
-4043.73 -4403.15 -242.065
-4827.77 -4429.18 -334.304
-4979.44 -4433.76 -293.502
-4684.25 -4438.99 -365.112
-4684.25 -4438.99 -365.112
-4195.33 -4473.14 -219.162
-3978.75 -4479.5 -195.526
-4762.53 -4501.03 -312.82
-5049.44 -4503.91 -253.204
-5049.44 -4503.91 -253.204
-4831.83 -4531.69 -329.284
-4014.98 -4536.32 -244.339
-4019.76 -4540.96 -195.419
-4688.4 -4557.86 -359.237
-4688.4 -4557.86 -359.237
-4023.79 -4557.41 -190.658
-4023.79 -4557.41 -190.658
-4060.58 -4563.47 -197.311
-5003.9 -4609.93 -298.446
-4770.61 -4617.71 -321.243
-4770.61 -4617.71 -321.243
-4101.44 -4641.35 -198.761
-4031.96 -4643.39 -198.257
-4122.38 -4684.97 -148.788
-4831.79 -4724.16 -329.742
-4142.57 -4733.91 -175.384
-4101.83 -4787.33 -158.416
-4167.25 -4791.48 -159.988
-4133.99 -4799.13 -208.343
-4134.57 -4795.61 -151.733
-4566.92 -4825.31 -257.736
-4183.47 -4824.06 -176.391
-4163.15 -4848.77 -165.435
-4489.78 -4852.54 -208.587
-4150.9 -4893.91 -163.07
-4179.41 -4914.37 -163.314
-4208.16 -4945.18 -160.949
-4212.06 -4953.19 -175.72
-4212.7 -4949.84 -114.715
-4195.85 -4988.22 -159.301
-4195.85 -4988.22 -159.301
-4302.41 -5050.03 -141.586
-4270.05 -5050.32 -111.786
-4318.84 -5082.84 -137.725
-4615.5 -3577.17 -303.588
-3806.36 -3618.12 -267.471
-4586.99 -3626.38 -289.169
-4897.15 -3646.58 -335.556
-4852.12 -3662.93 -340.255
-4224.53 -3686.89 -157.653
-4019.68 -3686.46 -196.197
-4983.3 -3698.11 -308.303
-4249.03 -3725.78 -162.46
-4946.64 -3733.02 -300.491
-4868.5 -3734.63 -336.929
-5023.69 -3793.99 -350.006
-4216.22 -3803.58 -169.708
-4375.64 -3807.68 -176.529
-4081.17 -3815.74 -187.271
-4023.81 -3823.81 -190.399
-4023.81 -3823.81 -190.399
-4831.8 -3841.27 -329.544
-4533.66 -3888.48 -305.694
-4582.39 -3916.86 -335.54
-5146.83 -3927.63 -309.585
-4261.28 -3930.69 -164.795
-4700.61 -3951.5 -361.953
-5020.28 -3960.49 -295.105
-3986.46 -3964.66 -244.339
-3986.46 -3964.66 -244.339
-4736.79 -3996.03 -410.369
-4248.38 -4034.61 -223.602
-4880.77 -4045.99 -339.065
-4113.2 -4071.23 -242.492
-4794.37 -4074.25 -383.27
-4794.37 -4074.25 -383.27
-4680.32 -4095.04 -350.86
-4680.32 -4095.04 -350.86
-4170.37 -4097.8 -255.493
-3950.44 -4110.75 -179.031
-5024.23 -4173.44 -309.036
-4643.36 -4197.26 -364.09
-3708.37 -4200.05 -252.716
-4986.99 -4211.99 -342.727
-4990.86 -4275.34 -357.467
-4990.86 -4275.34 -357.467
-4289.26 -4321.47 -224.777
-4289.26 -4321.47 -224.777
-5097.85 -4355.82 -303.741
-4117.41 -4366.37 -235.916
-5183.52 -4404.93 -316.986
-4007.59 -4456.98 -192.199
-4007.59 -4456.98 -192.199
-4782.71 -4461.82 -339.294
-4712.81 -4477.92 -364.791
-5139.03 -4483.2 -280.761
-4619.37 -4556.28 -318.512
-4060.46 -4624.97 -198.471
-5069.21 -4648.79 -304.946
-3991.04 -4665.94 -197.479
-4085.69 -4674.8 -141.113
-4085.69 -4674.8 -141.113
-4635.77 -4707.93 -314.895
-4635.77 -4707.93 -314.895
-4105.6 -4733.62 -192.657
-4693.03 -4736.64 -312.622
-4693.03 -4736.64 -312.622
-4069.26 -4754.67 -145.019
-4582.85 -4777.73 -295.013
-4902.54 -4899.61 -228.057
-4946.12 -3552.35 -341.415
-4946.12 -3552.35 -341.415
-4489.34 -3593.96 -249.099
-4693.02 -3634.43 -312.652
-5134.34 -3646.78 -327.468
-4786.79 -3650.69 -334.045
-4371.05 -3680.19 -223.129
-4138.62 -3701.19 -161.026
-4496.96 -3728.73 -298.248
-4072.8 -3749.95 -199.905
-4240.71 -3758.45 -174.469
-4431.78 -3765.75 -276.153
-4550.07 -3794.25 -301.956
-4015.52 -3811.4 -202.331
-4015.52 -3811.4 -202.331
-4167.29 -3848.77 -159.591
-5040.08 -3861.64 -346.588
-5040.08 -3861.64 -346.588
-4097.27 -3868.74 -204.925
-4178.88 -3913.73 -223.281
-4493.49 -3919.81 -243.148
-4757.87 -3924.89 -359.649
-3921.29 -3995.55 -222.046
-5003.89 -4013.69 -298.477
-4472.48 -4032 -293.426
-4040.22 -4047.2 -186.767
-4170.78 -4067.48 -214.996
-3900.74 -4067.17 -231.689
-4064.09 -4108.01 -252.578
-4900.8 -4109.2 -370.468
-4900.8 -4109.2 -370.468
-4068.64 -4112.58 -206.07
-4073.2 -4119.19 -159.485
-4076.54 -4140.98 -234.634
-4142.18 -4145.34 -215.774
-4081.09 -4145.55 -188.125
-3917.14 -4192.19 -228.058
-4655.62 -4193.16 -366.302
-4190.69 -4234.96 -266.494
-4667.84 -4258.69 -368.85
-4002.88 -4298.69 -240.539
-4015.12 -4362.17 -242.935
-4088.78 -4431.9 -237.136
-4647.54 -4512.81 -357.956
-4174.93 -4526.56 -208.969
-4819.56 -4589.04 -327.148
-4121.98 -4637.35 -189.27
-4126.54 -4644.03 -142.73
-4232.63 -4945.11 -166.015
-4290.35 -4996.88 -123.016
-4290.35 -4996.88 -123.016
-4131.09 -3660.74 -96.13
-4154.35 -3782.59 -218.841
-4154.35 -3782.59 -218.841
-4441.45 -3869.5 -142.013
-5216.07 -4040.1 -330.215
-4814.93 -4326.32 -373.672
-4775.31 -4454.42 -273.88
-5044.75 -4687.79 -299.987
-5044.75 -4687.79 -299.987
-5043.47 -4145.83 -401.657
-4553.76 -4211.83 -336.761
-5200.98 -4450.96 -231.979
-4937.31 -4526.91 -393.829
-3655.26 -3786.24 -249.038
-3696.13 -4413.16 -250.305
-4064.71 -4438.56 -191.467
-3704.23 -4437.65 -258.667
-3712.52 -4470.57 -246.704
-3696.13 -4740.97 -250.32
-5071.55 -5091.63 -121.49
-5134.33 -4187.66 -327.514
-4511.75 -4268.15 -437.103
-4805.54 -4022.34 -467.88
-4805.54 -4022.34 -467.88
-4464.86 -4278.37 -244.232
-4121.98 -4598.43 -189.148
-5140.07 -1974.6 -199.31
-4216.66 -1980.92 -328.72
-4384.29 -1996.34 -323.989
-4202.42 -2015.83 -310.394
-4147.07 -2019.83 -329.62
-4147.07 -2019.83 -329.62
-4433.64 -2025.16 -293.396
-4776.67 -2031.25 -328.186
-5111.16 -2060.5 -224.35
-4586.99 -2066.22 -289.093
-5036.92 -2072.58 -271.301
-4186.14 -2075.22 -312.82
-4558.62 -2133.92 -269.622
-4677.04 -2151.36 -276.107
-4697.69 -2182.14 -265.655
-5002.61 -2290.95 -240.005
-4931.43 -2297.25 -206.543
-4849.2 -2366.73 -244.384
-4562.94 -2403.53 -243.942
-4748.88 -2407.62 -252.822
-4630.51 -2409.76 -242.004
-4630.51 -2409.76 -242.004
-4044.8 -2435.59 -340.561
-4906.14 -2481.36 -263.336
-5055.4 -2482.4 -264.816
-3719.87 -2514.37 -336.456
-5063.75 -2519.34 -252.639
-5051.28 -2523.32 -270.294
-3695.4 -2525.69 -331.436
-4130.71 -2529.86 -332.824
-3973.56 -2541.32 -303.497
-3867.18 -2562.68 -320.144
-3871.54 -2583.34 -293.64
-4061.58 -2601.81 -296.463
-4820.29 -2608.37 -266.174
-4836.72 -2640.15 -262.252
-3740.8 -2655.01 -285.888
-3740.8 -2655.01 -285.888
-3953.46 -2675.67 -276.062
-3666.78 -2742.82 -332.55
-4029.24 -2774.11 -262.558
-4020.94 -2793.48 -274.582
-4205.21 -2804.02 -245.636
-4407.85 -2877.92 -229.583
-4109.09 -2902.28 -248.062
-4742.86 -2913.77 -241.684
-4223.7 -2920.81 -238.861
-5205.93 -2923.57 -324.569
-4119.29 -2945.26 -253.143
-4642.69 -2949.63 -244.995
-4381.19 -2957.85 -228.714
-4358.63 -2958.77 -240.554
-4366.88 -2987.56 -229.263
-4209.53 -3005.02 -219.665
-4209.53 -3005.02 -219.665
-4319.81 -3005.92 -236.526
-4505.75 -3018.21 -245.407
-4503.73 -3026.4 -247.833
-4661.21 -3075.72 -238.098
-5120.54 -3150.28 -287.307
-4745.08 -3154.6 -237.228
-4785.63 -3160.65 -256.149
-4350.71 -3160.83 -212.402
-4289.67 -3162.05 -184.234
-5120.06 -3191.95 -327.59
-4352.64 -3206.8 -229.004
-4587.46 -3253.83 -248.458
-4587.46 -3253.83 -248.458
-4581.24 -3260.92 -257.232
-4685.75 -3266.23 -242.248
-4193.22 -3274.41 -222.458
-4316.09 -3292.07 -201.873
-4316.09 -3292.07 -201.873
-4685.37 -3312.16 -264.129
-4305.66 -3322.66 -217.27
-4393.3 -3338.94 -232.574
-4393.37 -3364.56 -231.75
-4405.7 -3416.76 -233.337
-5118.18 -3419.48 -310.791
-4835.8 -3442.83 -325.164
-4440.14 -3450.35 -263.656
-4795.28 -3461.33 -320.327
-4442.36 -3473.09 -241.226
-4674.55 -3488.91 -319.168
-4674.55 -3488.91 -319.168
-4462.78 -3508.95 -247.268
-4672.43 -3509.36 -322.555
-4672.43 -3509.36 -322.555
-4776.35 -3525.57 -349.411
-4175.73 -1968.65 -328.17
-4008.08 -1969.6 -333.374
-3905.98 -1969.61 -324.417
-4165.59 -1974.8 -322.494
-4584.72 -1975.95 -312.011
-4694.61 -1977.84 -350.586
-4038.99 -1978.94 -308.807
-4038.99 -1978.94 -308.807
-4574.26 -1979.98 -327.652
-4408.72 -1983 -329.193
-4999.98 -1984.39 -284.149
-4437.33 -1985.05 -328.277
-3959.32 -1989.24 -303.36
-3890.02 -1989.28 -286.895
-3890.02 -1989.28 -286.895
-4561.84 -1990.15 -345.077
-4561.84 -1990.15 -345.077
-4645.44 -1993.16 -361.084
-4208.55 -1993.27 -320.541
-4558.17 -1995.44 -310.196
-4584.68 -1997.49 -312.393
-3900.17 -1997.43 -292.511
-4535.27 -1999.35 -343.368
-4793.02 -2000.56 -325.088
-4253.32 -2000.35 -336.547
-4602.92 -2006.62 -326.278
-4782.63 -2008.68 -339.981
-4782.63 -2008.68 -339.981
-4443.85 -2008.77 -298.37
-4580.54 -2010.75 -318.313
-4331.13 -2012.75 -320.846
-5106.94 -2015.39 -230.789
-4374.35 -2015.93 -298.187
-4774.74 -2019 -315.506
-3764.87 -2025.85 -331.772
-5088.46 -2027.64 -237.411
-4566.48 -2031.33 -298.263
-3863.04 -2031.05 -326.065
-3779.2 -2032.05 -331.07
-5059.84 -2033.79 -238.281
-5059.84 -2033.79 -238.281
-4241.29 -2037.33 -313.858
-4241.29 -2037.33 -313.858
-4805.26 -2041.52 -327.56
-4253.51 -2043.46 -316.467
-4582.57 -2045.57 -315.704
-4570.59 -2045.71 -292.663
-4022.6 -2046.51 -312.408
-4639.94 -2047.7 -308.685
-4680.82 -2049.76 -309.86
-4235.25 -2052.75 -302.78
-4527.66 -2064.15 -294.265
-4527.66 -2064.15 -294.265
-4546.15 -2066.23 -287.49
-4226.96 -2069.08 -314.605
-4226.96 -2069.08 -314.605
-4997.91 -2070.41 -286.972
-4086.3 -2068.18 -280.67
-3754.5 -2070.87 -346.817
-5156.45 -2072.97 -195.983
-4382.42 -2076.32 -306.717
-4382.42 -2076.32 -306.717
-4337.46 -2083.48 -310.775
-4261.8 -2082.44 -304.718
-4611.52 -2087.7 -293.38
-4294.69 -2087.67 -292.633
-4347.56 -2087.56 -316.772
-3945.18 -2093.74 -287.872
-3867.18 -2093.56 -320.175
-5076.26 -2097.33 -234.558
-5076.26 -2097.33 -234.558
-4977.35 -2097 -296.524
-4578.95 -2096.98 -280.349
-4578.95 -2096.98 -280.349
-4270.18 -2101.97 -291.916
-4993.74 -2105.23 -293.045
-4914.03 -2113.41 -291.473
-4599.22 -2113.33 -291.61
-4388.91 -2114.41 -277.053
-4341.53 -2113.2 -305.664
-4575.04 -2115.53 -265.777
-4409.2 -2117.38 -288.223
-4534.38 -2123.83 -244.323
-4922.36 -2127.8 -279.48
-4245.7 -2127.62 -287.14
-4245.7 -2127.62 -287.14
-4511.55 -2131.86 -276.886
-3895.8 -2131.47 -319.061
-4384.71 -2133.8 -283.508
-4703.45 -2137.91 -297.378
-4431.74 -2137.95 -276.611
-4170.14 -2137.9 -276.031
-4566.68 -2140.03 -278.213
-4362.35 -2139.98 -275.207
-4499.27 -2142.08 -274.841
-4742.7 -2145.28 -261.245
-4666.92 -2146.26 -270.279
-4454 -2153.24 -300.018
-4656.8 -2154.48 -264.511
-4513.6 -2154.37 -274.246
-4466.27 -2155.27 -302.169
-5018.44 -2155.51 -277.755
-5043.19 -2157.66 -262.085
-4562.97 -2159.68 -243.652
-4675.26 -2165.79 -258.148
-4977.59 -2167.82 -276.245
-4896.06 -2169.94 -257.141
-5080.14 -2176.15 -249.176
-4738.56 -2177.02 -267.028
-4669.24 -2176.11 -246.917
-4605.95 -2176.09 -241.653
-4517.73 -2177.01 -268.509
-4452.58 -2179.09 -245.971
-4922.6 -2180.17 -259.14
-4624 -2181.08 -271.713
-4718.46 -2188.44 -236.129
-4603.87 -2190.4 -244.72
-4538.32 -2191.36 -258.575
-4286.73 -2191.19 -268.57
-4800.03 -2193.51 -254.776
-4581.22 -2192.39 -257.415
-4646.62 -2201.65 -259.368
-4618.43 -2200.76 -223.678
-4769.47 -2206.84 -242.981
-4673.44 -2216.08 -240.57
-4628.39 -2229.37 -245.407
-5186.4 -2231.52 -252.792
-4947.33 -2231.46 -243.652
-4898.4 -2231.52 -233.734
-4315.18 -2232.17 -283.63
-4648.94 -2233.54 -235.931
-4663.55 -2238.81 -214.492
-4579.38 -2241.66 -239.99
-4362.53 -2246.67 -255.31
-4458.62 -2251.84 -253.28
-4200.61 -2252.55 -292.419
-4252.11 -2265.05 -258.148
-4213.06 -2264.97 -274.597
-4947.56 -2266.43 -223.526
-4176.14 -2266.95 -287.506
-4914.79 -2282.79 -230.285
-4401.32 -2283.51 -259.582
-4610.09 -2286.76 -235.931
-4573.37 -2287.83 -228.622
-4867.68 -2288.89 -237.884
-5215.02 -2298.11 -251.968
-4186.31 -2299.66 -292.907
-4996.57 -2303.3 -229.156
-4853.37 -2303.23 -238.357
-4734.62 -2312.33 -252.761
-4389.04 -2314.27 -257.583
-4998.7 -2315.72 -225.601
-4998.7 -2315.72 -225.601
-4644.79 -2315.44 -241.76
-5008.82 -2321.78 -231.369
-5008.82 -2321.78 -231.369
-4726.8 -2321.73 -223.831
-4726.8 -2321.73 -223.831
-4429.89 -2324.51 -259.155
-4982.27 -2328.93 -229.415
-5147.6 -2328.87 -248.596
-4996.33 -2329.86 -249.343
-4610.13 -2329.76 -235.443
-5166.09 -2342.24 -242.05
-4638.56 -2348.19 -250.671
-5194.75 -2350.43 -240.783
-4432.27 -2353.32 -235.031
-4005.98 -2357.77 -336.563
-3883.15 -2363.75 -357.574
-4638.29 -2365.49 -271.377
-4622.43 -2374.93 -233.566
-4395.32 -2382.96 -248.199
-5209.33 -2392.56 -219.848
-5061.92 -2397.55 -235.29
-4714.56 -2399.59 -221.466
-4714.56 -2399.59 -221.466
-4812.49 -2401.62 -237.03
-4812.49 -2401.62 -237.03
-4452.58 -2407.54 -246.032
-4546.61 -2413.74 -246.856
-4599.96 -2415.88 -230.117
-3672.78 -2424.21 -344.207
-3715.66 -2436.51 -343.048
-3715.66 -2436.51 -343.048
-4716.37 -2444.55 -239.166
-4716.37 -2444.55 -239.166
-5051.51 -2456.87 -250.244
-4838.79 -2460.88 -259.368
-5086.11 -2464.02 -260.742
-5086.11 -2464.02 -260.742
-4710.13 -2463.97 -248.107
-4975.52 -2466.95 -279.144
-5025.22 -2469.33 -227.874
-3914.26 -2474.62 -312.561
-3889.62 -2474.52 -327.667
-4051.01 -2476.61 -331.71
-5069.77 -2478.33 -263.778
-4654.69 -2480.25 -267.852
-4654.69 -2480.25 -267.852
-3738.32 -2488.83 -329.925
-4828.63 -2491.66 -254.028
-5061.65 -2492.71 -255.813
-4851.02 -2492.63 -261.871
-4640.39 -2495.61 -268.188
-5124.7 -2496.71 -281.372
-5124.7 -2496.71 -281.372
-4147.08 -2499.23 -329.559
-4132.79 -2501.25 -329.788
-3977.38 -2503.19 -337.478
-3875.23 -2503.22 -329.01
-3664.69 -2503.11 -335.754
-3730.21 -2508.33 -321.624
-4918.42 -2511.05 -265.396
-4474.8 -2511.95 -269.928
-4071.54 -2511.47 -322.235
-4042.96 -2511.48 -322.906
-5133.04 -2517.28 -269.317
-4108.49 -2517.72 -308.944
-3709.9 -2519.66 -310.562
-3765.06 -2521.71 -311.447
-5151.51 -2531.65 -262.893
-4102.26 -2532.01 -317.947
-4055.36 -2534.12 -305.45
-4055.36 -2534.12 -305.45
-4008.28 -2544.32 -313.003
-4992.15 -2548.01 -255.477
-4975.76 -2550.07 -258.926
-3863 -2552.4 -326.492
-4041.03 -2554.67 -306.167
-4165.77 -2556.73 -302.444
-3914.23 -2558.6 -312.851
-3914.23 -2558.6 -312.851
-4822.65 -2562.41 -242.431
-4374.34 -2563.98 -298.294
-4043.36 -2571.18 -282.333
-4848.97 -2574.55 -264.556
-4848.97 -2574.55 -264.556
-3945.19 -2575.16 -287.75
-3852.98 -2577.17 -301.223
-4867.43 -2584.87 -258.285
-4840.9 -2584.88 -256.118
-3908.25 -2589.44 -301.086
-4214.75 -2596.62 -311.935
-4082.13 -2598.78 -286.85
-4082.13 -2598.78 -286.85
-4417.28 -2603.92 -296.676
-4857.27 -2605.39 -252.899
-3863.24 -2608.85 -305.755
-5010.38 -2613.52 -269.287
-4842.92 -2617.67 -253.707
-3922.78 -2620.31 -279.953
-5196.28 -2623.74 -278.686
-4188.18 -2623.26 -310.165
-4051.42 -2636.65 -291.015
-4051.42 -2636.65 -291.015
-4999.98 -2638.01 -284.057
-5148.92 -2656.33 -306.472
-4176.15 -2656.2 -287.445
-4153.74 -2661.36 -279.678
-3896.2 -2661.28 -278.412
-3896.2 -2661.28 -278.412
-4198.31 -2667.3 -315.918
-4010.81 -2667.53 -268.875
-4822.03 -2669.7 -284.469
-4112.81 -2673.6 -282.898
-4069.89 -2674.6 -284.454
-3703.88 -2673.41 -299.102
-4503.19 -2676.76 -289.398
-4812.26 -2679.11 -257.247
-4832.54 -2681.09 -268.417
-3834.79 -2689.93 -286.728
-4820.31 -2691.34 -265.976
-3814.24 -2697.01 -296.356
-4016.78 -2704.34 -280.746
-4016.78 -2704.34 -280.746
-4912.46 -2709.87 -253.662
-3814.27 -2710.3 -296.173
-5148.94 -2721.91 -306.243
-4926.78 -2733.44 -253.067
-3977.97 -2748.41 -276.55
-4883.84 -2750.85 -254.531
-3800 -2752.32 -296.158
-4113.27 -2760.95 -241.867
-4889.83 -2769.21 -266.067
-4184.69 -2771.16 -254.882
-4184.69 -2771.16 -254.882
-4791.62 -2775.35 -267.623
-4221.4 -2775.2 -262.313
-4511.72 -2777.39 -257.141
-3981.93 -2778.01 -290.863
-4681.51 -2779.52 -249.054
-5092.14 -2781.52 -271.789
-4487.03 -2781.36 -272.537
-4487.03 -2781.36 -272.537
-5142.92 -2782.42 -295.196
-4926.27 -2782.33 -293.869
-3994.39 -2783.26 -272.674
-3906.56 -2789.44 -263.473
-3804.1 -2789.23 -290.786
-4059.89 -2792.57 -259.063
-3777.51 -2792.25 -293.35
-4903.89 -2793.64 -285.858
-3834.83 -2798.49 -286.209
-3834.83 -2798.49 -286.209
-3754.89 -2799.32 -305.984
-4014.9 -2801.79 -263.504
-4767.7 -2819.67 -224.945
-4033.38 -2826.41 -256.805
-4033.38 -2826.41 -256.805
-4207.28 -2830.66 -242.706
-5175.21 -2833.42 -328.72
-4879.66 -2835.85 -260.772
-4309.42 -2838.83 -251.571
-5216.08 -2855.95 -330.017
-4981.78 -2862.43 -270.019
-5030.43 -2864.28 -300.445
-3883.73 -2865 -296.569
-4728.89 -2866.82 -220.81
-3961.58 -2867.21 -280.136
-5059.33 -2870.6 -278.93
-3986.09 -2872.3 -284.774
-3986.09 -2872.3 -284.774
-4946.91 -2880.81 -280.044
-4757.52 -2883.22 -219.741
-4708 -2885.04 -251.648
-4059.91 -2885.8 -258.804
-4501.78 -2887.17 -231.506
-5050.72 -2888.8 -311.447
-4761.65 -2895.55 -214.035
-4645.01 -2899.6 -221.603
-4499.49 -2900.36 -254.577
-4119.22 -2900.14 -253.875
-4922.57 -2902.44 -259.43
-4774.16 -2906.96 -195.877
-4405.72 -2907.62 -233.032
-4900.2 -2919.91 -251.495
-4699.97 -2921.98 -242.706
-4057.83 -2926.76 -261.932
-5067.39 -2932 -287.429
-4722.37 -2934.22 -250.488
-4722.37 -2934.22 -250.488
-4951.05 -2940.3 -274.231
-4336.2 -2951.66 -232.986
-4317.7 -2953.66 -239.898
-4702.29 -2954.96 -219.345
-4673.67 -2954.91 -220.23
-4467.19 -2954.89 -220.611
-4436.42 -2956.82 -229.141
-4303.15 -2957.61 -260.894
-4201.35 -2957.77 -230.407
-4164.11 -2957.53 -264.755
-4368.64 -2959.76 -247.589
-4636.61 -2960.87 -252.365
-4618.15 -2962.89 -244.522
-4074.24 -2965.71 -258.163
-4153.98 -2967.81 -259.002
-4256.66 -2970.21 -211.776
-4256.66 -2970.21 -211.776
-4242.38 -2970.21 -212.005
-4182.78 -2969 -238.021
-4444.49 -2982.37 -237.686
-4867.68 -2983.53 -237.838
-4867.68 -2983.53 -237.838
-4356.62 -2985.53 -224.792
-4724.45 -2987.52 -247.528
-4184.91 -2987.46 -234.451
-4172.63 -2991.58 -232.467
-5173.36 -2997.43 -311.645
-4775.99 -2998.01 -213.333
-4293.24 -2998.78 -234.802
-3939.14 -3003.43 -276.703
-3746.6 -3006.15 -318.008
-4346.44 -3009.03 -237.701
-5210.06 -3008.65 -318.969
-4497.5 -3010.96 -256.698
-4912.45 -3012.12 -253.784
-4679.43 -3012.07 -252.014
-5169.17 -3013.78 -317.825
-4295.33 -3014.18 -231.674
-4724.43 -3015.17 -247.726
-4724.43 -3015.17 -247.726
-4356.73 -3016.27 -223.739
-4332.03 -3016.15 -239.151
-4000.61 -3016.89 -263.778
-4000.61 -3016.89 -263.778
-5157.01 -3022.01 -314.682
-4793.76 -3024.34 -263.977
-4340.38 -3026.53 -226.806
-4318.13 -3032.85 -199.218
-5177.27 -3037.29 -325.927
-4638.55 -3042.83 -250.869
-4973.42 -3043.72 -282.302
-4973.42 -3043.72 -282.302
-4436.39 -3046.95 -229.446
-4436.39 -3046.95 -229.446
-4951.04 -3048.9 -274.322
-4146.04 -3064.33 -230.957
-4146.04 -3064.33 -230.957
-4847.37 -3073.79 -226.928
-4946.89 -3075.49 -280.212
-4946.89 -3075.49 -280.212
-4730.73 -3087.98 -238.22
-4536.71 -3100.37 -220.687
-4125.7 -3100.18 -224.044
-4511.72 -3104.19 -257.095
-4511.72 -3104.19 -257.095
-4389.52 -3103.42 -216.613
-4301.75 -3118.88 -202.652
-4554.68 -3120.59 -255.34
-4554.68 -3120.59 -255.34
-4389.52 -3126.99 -216.629
-4127.78 -3131.97 -221.023
-4297.6 -3137.29 -208.496
-5053.11 -3137.9 -287.628
-5130.74 -3140 -292.221
-5109.87 -3141.77 -322.54
-5109.87 -3141.77 -322.54
-4720.03 -3147.13 -274.108
-4669.29 -3148.37 -246.49
-4201.4 -3151.54 -211.761
-4726.53 -3155.56 -244.522
-4726.53 -3155.56 -244.522
-3785.4 -3159.74 -322.158
-4309.86 -3161.89 -210.815
-4203.52 -3167.98 -208.252
-4530.43 -3167.91 -230.224
-4193.14 -3171.94 -223.205
-4475.25 -3173.05 -229.309
-4305.68 -3174.12 -217.01
-4867.46 -3174.97 -257.995
-4256.89 -3176.3 -191.284
-4734.61 -3178.04 -252.929
-4328.3 -3178.31 -204.605
-4912.49 -3179.1 -253.402
-5162.95 -3180.7 -326.568
-4618.46 -3183.32 -223.48
-5208.01 -3184.82 -321.67
-4800 -3187.29 -255.02
-4693.74 -3190.33 -251.525
-4883.56 -3191.23 -275.222
-4883.56 -3191.23 -275.222
-4748.96 -3191.37 -252.105
-4865.39 -3193.41 -260.894
-3975.89 -3194 -279.617
-4410.07 -3195.7 -207.046
-3865.33 -3199.9 -302.475
-4793.51 -3207.53 -284.439
-5173.38 -3209.49 -311.386
-4211.65 -3213 -216.308
-5154.92 -3217.63 -317.779
-4385.59 -3218.28 -202.255
-4158.09 -3225 -253.402
-5197.84 -3227.9 -316.375
-5197.84 -3227.9 -316.375
-4683.35 -3242.46 -266.479
-4824.22 -3245.49 -280.38
-5132.5 -3246.4 -310.257
-5107.77 -3248.32 -325.683
-4636.25 -3248.54 -274.047
-4597.89 -3248.83 -233.047
-4254.48 -3249.88 -215.896
-4520.07 -3253.86 -244.827
-4717.97 -3256.72 -276.855
-4656.8 -3256.82 -264.541
-4656.8 -3256.82 -264.541
-4289.71 -3257.31 -183.853
-4246.71 -3258.32 -186.05
-5156.96 -3262.75 -315.109
-4481.27 -3266.19 -240.524
-4336.17 -3266.2 -233.307
-4277.45 -3267.57 -181.701
-5167.11 -3280.1 -320.617
-4271.19 -3282.89 -190.887
-4271.19 -3282.89 -190.887
-5130.72 -3282.37 -292.48
-5130.72 -3282.37 -292.48
-4897.64 -3285.34 -294.921
-4673.19 -3285.52 -261.016
-5077.56 -3289.5 -292.724
-4703.87 -3293.79 -257.293
-4407.76 -3295.94 -230.529
-4199.42 -3298.05 -213.821
-5142.68 -3299.61 -315.399
-4420.1 -3300.01 -231.918
-4420.1 -3300.01 -231.918
-5110.14 -3300.75 -302.139
-4479.18 -3302.01 -243.667
-4662.58 -3309.83 -296.188
-4279.27 -3312.53 -199.386
-5203.82 -3312.83 -327.819
-4695.59 -3315.18 -268.844
-4420.04 -3318.45 -232.483
-4334.34 -3320.64 -215.728
-4289.68 -3322.87 -184.173
-4899.71 -3329.4 -292.114
-4899.71 -3329.4 -292.114
-4691.21 -3332.39 -295.044
-4273.52 -3335.34 -167.205
-5107.77 -3335.38 -325.744
-4660.48 -3336.45 -299.331
-4660.48 -3336.45 -299.331
-4873.25 -3344.79 -289.23
-4295.54 -3346.29 -211.456
-4283.44 -3351.5 -193.344
-4497.17 -3352.96 -278.122
-4554.45 -3361.2 -275.756
-4925.99 -3379.41 -314.544
-4509.42 -3385.74 -280.395
-4224.16 -3390.4 -197.799
-4283.43 -3392.48 -193.405
-4928.37 -3394.97 -290.741
-5132.49 -3401.09 -310.348
-5197.83 -3403.07 -316.467
-5102.02 -3403.16 -297.668
-4709.43 -3404.99 -309.021
-4479.15 -3408.57 -243.927
-4362.74 -3409.61 -235.046
-5158.53 -3415.04 -352.829
-4720.06 -3417.58 -273.834
-4381.24 -3418.91 -228.317
-4213.96 -3419.13 -192.733
-4228.27 -3421.18 -192.26
-4228.27 -3421.18 -192.26
-5030.16 -3427.54 -320.999
-4426.27 -3431.25 -223.571
-4426.27 -3431.25 -223.571
-3945.8 -3431.02 -226.638
-4454.89 -3433.3 -222.595
-4438.51 -3433.24 -226.013
-4695.11 -3434.7 -309.6
-5136.15 -3439.72 -344.894
-5136.15 -3439.72 -344.894
-5187.7 -3448.2 -310.882
-4372.9 -3449.51 -240.554
-4429.93 -3450.55 -240.676
-4688.61 -3456.99 -339.172
-4414.26 -3463.18 -200.79
-5152.83 -3464.49 -320.816
-5152.83 -3464.49 -320.816
-4430.17 -3465.93 -238.22
-4856.58 -3466.5 -313.476
-4389.53 -3472.25 -216.507
-5138.53 -3472.71 -321.151
-4377.27 -3474.34 -214.325
-5193.68 -3480.88 -322.296
-4639.92 -3489.01 -308.96
-5150.46 -3492.98 -344.39
-4307.76 -3495.84 -214.019
-4432.28 -3497.72 -234.954
-4367.13 -3497.95 -208.694
-4291.79 -3501.21 -180.862
-4693.04 -3503.29 -312.545
-4693.04 -3503.29 -312.545
-4605.44 -3503.51 -282.882
-4275.58 -3504.42 -164.459
-4440.58 -3507.04 -223.114
-4821.4 -3508.22 -344.513
-5172.85 -3511.35 -352.127
-4747.97 -3517.45 -333.709
-4666.47 -3521.77 -310.821
-5087.45 -3523.87 -318.512
-4564.33 -3527.92 -301.956
-3656.4 -1972.55 -347.778
-3680.88 -1982.75 -352.646
-4813.33 -2008.69 -335.937
-4839.89 -2012.77 -337.814
-4839.89 -2012.77 -337.814
-3748.48 -2013.55 -335.418
-5057.24 -2019.26 -281.921
-4631.38 -2019.89 -341.079
-3672.96 -2019.77 -324.02
-5137.99 -2025.83 -202.27
-4815.43 -2028.17 -332.779
-3742.24 -2027.79 -344.635
-3824.24 -2034.16 -321.914
-3922.56 -2036.32 -300.537
-3819.71 -2034.93 -368.606
-3724.01 -2037.15 -330.475
-4004.13 -2039.31 -319.015
-3848.7 -2040.28 -326.889
-3746.59 -2046.43 -318.145
-3891.85 -2048.57 -304.718
-3785.43 -2050.5 -321.853
-4378.46 -2054.9 -292.633
-5123.42 -2056.46 -223.022
-3773.34 -2059.84 -299.514
-3889.51 -2066.88 -328.796
-3797.49 -2069.91 -340.423
-4897.4 -2076.4 -315.17
-4897.4 -2076.4 -315.17
-4104.54 -2077.36 -294.632
-4036.92 -2077.26 -311.782
-3908.04 -2076.14 -321.548
-3871.33 -2079.26 -314.178
-4777.06 -2080.58 -292.16
-4321.21 -2082.54 -294.815
-4950.53 -2084.63 -315.048
-4068.02 -2092.85 -267.044
-4599.48 -2093.97 -270.95
-4621.68 -2096.95 -295.074
-4217.05 -2096.88 -288.437
-4170.14 -2098.99 -276.107
-3928.78 -2104.99 -291.565
-4198.78 -2108.22 -274.841
-4102.47 -2112.16 -297.546
-4456.09 -2116.38 -296.905
-4689.11 -2117.43 -298.217
-4689.11 -2117.43 -298.217
-4956.78 -2118.48 -306.121
-4671.11 -2120.68 -264.053
-4149.59 -2123.53 -285.659
-4446.12 -2127.72 -275.283
-4257.9 -2143.98 -289.871
-4186.31 -2147.05 -292.923
-4186.31 -2147.05 -292.923
-4754.92 -2155.52 -263.87
-4544.57 -2162.71 -249.481
-4215.36 -2164.68 -251.129
-4339.89 -2174.88 -267.959
-4771.57 -2179.21 -239.852
-4254.17 -2181.05 -255.325
-4468.58 -2189.19 -278.808
-4963.54 -2190.46 -256.332
-4963.54 -2190.46 -256.332
-4865.6 -2193.59 -240.86
-4706.22 -2194.6 -233.612
-4484.96 -2197.41 -275.39
-4305.05 -2199.42 -277.908
-4053.5 -2200.3 -288.025
-4335.75 -2208.65 -273.819
-4842.96 -2214 -253.311
-4736.7 -2212.96 -249.847
-5108.8 -2215.11 -247.833
-4845.27 -2216.18 -230.133
-4503.65 -2222.15 -248.565
-4830.73 -2224.27 -250.839
-4751.32 -2226.42 -228.286
-4472.93 -2225.2 -252.746
-4863.76 -2233.64 -223.51
-4790.12 -2233.63 -228.973
-4399.01 -2236.26 -283.096
-4812.22 -2238.57 -257.629
-4403.17 -2238.35 -277.038
-4528.12 -2240.57 -253.479
-4528.12 -2240.57 -253.479
-4466.95 -2240.62 -241.088
-4749.4 -2253.13 -211.715
-4698.15 -2254.08 -225.158
-4579.64 -2258.17 -219.345
-4231.55 -2260.9 -267.822
-4231.55 -2260.9 -267.822
-4886.39 -2277.77 -211.09
-4886.39 -2277.77 -211.09
-4548.92 -2284.79 -223.495
-4986.44 -2289.01 -223.403
-3786.95 -2297.07 -375.579
-4912.95 -2299.28 -213.043
-4875.73 -2301.16 -246.536
-4741.07 -2301.26 -223.785
-4986.42 -2307.45 -223.587
-4986.42 -2307.45 -223.587
-3834 -2307.34 -368.194
-4851.57 -2319.73 -220.611
-3885.45 -2325.99 -333.954
-4624.25 -2327.7 -251.144
-4777.48 -2332.86 -252.09
-4818.75 -2338.19 -227.905
-3854.54 -2344.28 -358.551
-4824.73 -2352.4 -239.486
-4824.73 -2352.4 -239.486
-4779.89 -2352.42 -227.89
-4779.89 -2352.42 -227.89
-4810.41 -2354.46 -239.975
-4810.41 -2354.46 -239.975
-3938.55 -2395.62 -337.616
-4794 -2397.48 -243.652
-4845.29 -2399.61 -229.919
-3660.57 -2416.02 -341.476
-3689.2 -2426.29 -340.332
-5086.15 -2446.58 -260.421
-4478.96 -2487.41 -263.931
-4462.55 -2497.62 -267.624
-4462.55 -2497.62 -267.624
-3830.46 -2502.28 -312.927
-4969.77 -2504.03 -247.436
-4118.64 -2505.39 -314.453
-4098.11 -2505.34 -323.944
-5041.62 -2518.51 -224.365
-4085.61 -2519.55 -342.376
-4155.2 -2525.76 -337.57
-3767.13 -2525.83 -308.532
-3767.13 -2525.83 -308.532
-3848.91 -2526.9 -306.518
-3848.91 -2526.9 -306.518
-4039.02 -2542.31 -308.548
-4106.42 -2584.28 -311.828
-3838.74 -2583.29 -301.086
-4124.94 -2585.43 -300.781
-3710.27 -2588.56 -269.958
-4431.57 -2597.78 -296.295
-4031.1 -2597.82 -280.075
-4031.1 -2597.82 -280.075
-4842.94 -2599.2 -253.494
-4822.39 -2599.16 -262.954
-4830.72 -2613.6 -250.915
-4078.18 -2635.76 -272.537
-4059.53 -2648.92 -299.209
-4830.69 -2652.52 -251.251
-3826.53 -2675.48 -298.37
-4186.12 -2677.53 -313.064
-3689.56 -2677.46 -299.759
-3871.52 -2680.64 -293.853
-3871.52 -2680.64 -293.853
-3935.39 -2694.3 -241.974
-3683.32 -2693.8 -308.944
-5208.27 -2699.4 -301.345
-4086.52 -2720.85 -260.162
-4284.44 -2726.84 -291.916
-4509.2 -2729.94 -300.705
-3658.64 -2732.65 -324.615
-5216.59 -2745.59 -289.489
-3822.36 -2749.21 -304.565
-3724.19 -2759.35 -310.226
-3754.88 -2761.44 -306.121
-3963.48 -2767.72 -297.165
-3963.48 -2767.72 -297.165
-5014.3 -2783.48 -283.523
-4781.71 -2792.87 -245.376
-4103.13 -2812.21 -236.19
-4195.05 -2826.57 -240.188
-4137.59 -2836.64 -262.558
-4949.22 -2848.22 -256.881
-4199.19 -2849.17 -234.268
-4137.54 -2855.05 -263.031
-4119.28 -2865.36 -253.311
-4319.56 -2871.57 -257.156
-4743.18 -2874 -220.535
-4139.63 -2877.65 -259.918
-4103.12 -2877.8 -236.282
-4103.12 -2877.8 -236.282
-4090.85 -2889.05 -234.085
-4356.74 -2896.41 -223.587
-4321.88 -2896.34 -233.673
-4381.21 -2897.39 -228.576
-4186.97 -2909.61 -231.689
-4082.27 -2916.48 -267.212
-4211.45 -2922.9 -236.526
-4121.31 -2922.75 -250.763
-3752.82 -2922.21 -309.051
-4070.3 -2923.82 -243.744
-4325.81 -2926.97 -247.97
-4156.04 -2931.97 -256.256
-4084.61 -2937.14 -243.24
-3900.39 -2947.14 -271.988
-3900.39 -2947.14 -271.988
-3933.33 -2952.44 -244.781
-4094.78 -2961.68 -248.626
-4141.98 -2971.04 -235.946
-4107.03 -2991.38 -250.961
-4336.19 -2992.64 -233.154
-4125.72 -2995.7 -223.907
-4207.29 -3031.45 -242.553
-4144.01 -3044.84 -233.49
-4201.52 -3048.08 -210.51
-4223.9 -3052.13 -218.567
-4785.69 -3055.13 -255.539
-4681.51 -3057.18 -249.099
-4170.58 -3058.14 -235.199
-4875.49 -3076.55 -266.784
-5108.28 -3084.65 -288.665
-5108.28 -3084.65 -288.665
-4176.99 -3086.03 -206.1
-4195.25 -3092.07 -219.894
-4806.01 -3092.95 -266.357
-4269.15 -3095.34 -193.557
-5175.17 -3096.67 -329.132
-4139.88 -3098.06 -239.166
-5063.48 -3103.2 -273.132
-4023.22 -3108.16 -251.22
-3785.6 -3115.85 -301.788
-4166.68 -3124.85 -220.413
-4205.62 -3129.07 -205.108
-4205.62 -3129.07 -205.108
-4070.32 -3149.19 -243.499
-4070.32 -3149.19 -243.499
-4832.57 -3153.39 -268.158
-5136.42 -3160.22 -324.432
-4281.38 -3168.08 -196.075
-4217.87 -3182.33 -207.367
-4297.62 -3188.5 -208.343
-4244.46 -3198.71 -208.953
-4244.46 -3198.71 -208.953
-4228.04 -3200.73 -212.814
-4462.78 -3214.91 -247.314
-4303.85 -3217.31 -199.432
-5044.76 -3221.82 -299.82
-5173.39 -3223.82 -311.386
-4763.25 -3232.35 -251.815
-4734.63 -3233.36 -252.761
-4326.24 -3234.65 -207.473
-4305.48 -3236.45 -237.274
-4356.95 -3243.89 -203.308
-4356.95 -3243.89 -203.308
-4195.24 -3247.8 -219.986
-3826.3 -3248.95 -319.03
-3742.46 -3252.93 -323.974
-4311.7 -3258.04 -228.378
-4356.73 -3261.14 -223.678
-4693.5 -3272.14 -271.926
-4377.09 -3276.42 -234.13
-4377.09 -3276.42 -234.13
-4452.76 -3277.51 -226.089
-5205.91 -3283.15 -324.737
-4851.04 -3286.62 -261.734
-4211.65 -3297.01 -216.293
-4434.12 -3300.87 -252.411
-4677.12 -3301.82 -275.344
-4930.42 -3319.19 -287.994
-5069.5 -3321.32 -284.21
-4360.66 -3356.31 -238.128
-4403.62 -3357.35 -236.328
-5142.69 -3358.01 -315.307
-5142.69 -3358.01 -315.307
-4597.4 -3365.29 -274.063
-4597.4 -3365.29 -274.063
-4267.09 -3372.99 -196.441
-4267.09 -3372.99 -196.441
-4322.08 -3373.93 -213.424
-4338.28 -3374.81 -230.041
-4874.99 -3377.42 -307.54
-4599.49 -3383.75 -270.889
-4252.76 -3384.26 -197.052
-4252.76 -3384.26 -197.052
-4336.4 -3390.33 -212.906
-4417.94 -3392.19 -235.733
-4238.42 -3397.57 -197.799
-4318.19 -3398.65 -198.577
-4318.19 -3398.65 -198.577
-4607.55 -3399.04 -279.51
-4332.48 -3410.94 -198.349
-4681.02 -3414.39 -289.947
-4076.73 -3424.01 -214.447
-4503.65 -3426.97 -248.596
-4711.5 -3429.61 -306.091
-4385.39 -3433.28 -222.381
-4385.39 -3433.28 -222.381
-4326.24 -3433.41 -207.504
-4403.63 -3442.39 -236.221
-4623.54 -3442.87 -312.271
-4470.85 -3443.29 -255.752
-4778.99 -3445.04 -304.946
-4261.07 -3455.06 -185.058
-4279.29 -3458.01 -199.249
-4672.46 -3459.18 -322.28
-4479.18 -3459.8 -243.621
-4723.73 -3460.31 -308.639
-5032.31 -3466.51 -317.352
-5032.31 -3466.51 -317.352
-5179.1 -3468.4 -343.17
-4709.41 -3470.56 -309.219
-4319.96 -3476.37 -216.934
-4236.55 -3476.58 -180.542
-4052.05 -3478.16 -229.843
-4301.97 -3481.79 -182.312
-4625.61 -3487.97 -309.417
-4701.11 -3488.88 -320.968
-4442.42 -3489.47 -240.539
-4442.42 -3489.47 -240.539
-4595.33 -3491.25 -276.947
-4595.33 -3491.25 -276.947
-4989.34 -3495.16 -319.168
-4664.41 -3497.14 -313.613
-4664.41 -3497.14 -313.613
-5212.15 -3499.37 -315.963
-4352.83 -3505.11 -208.999
-4725.33 -3509.15 -346.328
-4705.03 -3509.25 -335.357
-4593.24 -3513.78 -280.044
-4593.24 -3513.78 -280.044
-4574.78 -3516.79 -286.392
-4375.2 -3521.44 -217.224
-4285.76 -3521.79 -169.662
-4285.76 -3521.79 -169.662
-4264.99 -3525.64 -199.63
-5185.36 -1994.2 -174.469
-5214.56 -2008.77 -132.385
-3875.27 -2042.3 -328.613
-4117.39 -2065.35 -236.099
-5103.06 -2090.28 -216.171
-5172.36 -2090.22 -232.849
-5099.15 -2100.6 -201.843
-5155.95 -2125.04 -236.45
-4652.62 -2134.99 -270.752
-4276.14 -2140.85 -303.833
-5082.2 -2151.58 -246.414
-4239.77 -2155.54 -256.744
-4697.67 -2165.73 -265.899
-4361.87 -2169.49 -316.345
-5102.55 -2178.18 -256.82
-4326.49 -2184.56 -186.737
-4791.94 -2200.72 -246.521
-5028.89 -2233.47 -262.497
-4497.44 -2241.63 -257.354
-4735.11 -2250.07 -212.036
-4988.75 -2258.39 -200.271
-4477.1 -2266.25 -246.627
-4522.13 -2278.54 -242.019
-4849.2 -2286.79 -244.43
-4784.04 -2293.04 -221.984
-4681.27 -2307.11 -269.439
-4894.26 -2319.63 -239.517
-4714.08 -2319.44 -262.176
-4661.44 -2331.92 -217.727
-4755.36 -2336.1 -223.556
-4685.9 -2340.27 -222.854
-4685.9 -2340.27 -222.854
-4857.53 -2344.26 -232.345
-4894.24 -2356.52 -239.73
-4918.19 -2374.66 -285.492
-4738.54 -2401.37 -267.227
-4771.8 -2409.82 -219.497
-4824.72 -2413.89 -239.578
-3875.9 -2511.8 -267.196
-4063.67 -2593.62 -293.335
-4063.67 -2593.62 -293.335
-4199.04 -2651.26 -254.013
-4027.37 -2847.99 -245.346
-4170.33 -2872.56 -255.874
-4358.59 -2878.87 -241.027
-4047.29 -2892.71 -296.829
-4346.35 -2911.48 -238.647
-4273.06 -3071.67 -208.13
-4223.93 -3112.56 -218.383
-4223.93 -3112.56 -218.383
-4244.47 -3155.69 -208.877
-4158.12 -3179.92 -253.189
-4183.04 -3229.38 -217.208
-4387.23 -3249.74 -239.822
-4330.63 -3280.96 -180.877
-4203.58 -3288.88 -207.718
-4244.45 -3352.38 -209.045
-4517.49 -3357.98 -288.91
-4738.53 -3368.46 -267.379
-4436.46 -3372.79 -228.744
-4599.26 -3409.2 -291.183
-4460.67 -3446.43 -250.595
-4366.91 -3467.03 -228.927
-5195.77 -3501.38 -319.29
-4194.42 -1968.77 -301.101
-4594.62 -1985.04 -338.058
-4484.28 -1985.05 -336.395
-5160.17 -2041.09 -229.949
-4468.35 -2071.29 -299.194
-4468.35 -2071.29 -299.194
-5130.97 -2100.28 -272.155
-4374.08 -2108.02 -318.985
-5123.37 -2127.17 -223.571
-5118.68 -2133.05 -270.278
-5118.68 -2133.05 -270.278
-4815.92 -2155.4 -292.099
-4845.28 -2194.67 -229.98
-4153.96 -2216.89 -259.216
-4992.16 -2245.79 -255.325
-5029.72 -2278.95 -200.744
-5029.72 -2278.95 -200.744
-4428.1 -2307.17 -241.119
-4485.87 -2319.79 -193.924
-4005.6 -2347.29 -376.953
-4747.37 -2368.89 -214.202
-4828.9 -2376.91 -233.383
-4112.21 -2394.6 -343.811
-3678.43 -2414.68 -396.331
-5078.6 -2463.27 -211.212
-4918.71 -2479.42 -244.598
-4918.71 -2479.42 -244.598
-3727.96 -2482.58 -344.894
-3981.52 -2515.53 -331.482
-3981.52 -2515.53 -331.482
-4075.48 -2544.19 -336.685
-4324.93 -2558.65 -329.483
-3720.24 -2581.22 -295.837
-5179.89 -2632.94 -282.119
-3810.29 -2675.6 -281.997
-4505.27 -2778.19 -286.239
-3908.44 -2939.88 -280.761
-3842.69 -2939.63 -315.414
-4330.18 -2956.87 -221.74
-4023.21 -2964.74 -251.312
-3654.7 -3001.07 -310.043
-3781.45 -3009.29 -307.907
-5187.68 -3056.86 -311.05
-4240.3 -3063.42 -214.996
-4877.84 -3169.97 -243.225
-4983.32 -3204.34 -308.12
-5052.83 -3214.59 -308.258
-5159.07 -3222.81 -311.981
-5159.07 -3222.81 -311.981
-5081.45 -3237.13 -307.266
-4836.46 -3255.72 -282.714
-4966.95 -3280.13 -311.355
-3801.82 -3316.57 -314.209
-5081.45 -3327.29 -307.266
-3674.84 -3328.58 -341.324
-4885.41 -3339.64 -292.45
-4014.71 -3345.56 -283.676
-4477.09 -3364.49 -246.749
-4570.61 -3384.59 -292.556
-4648.01 -3396.74 -317.276
-5077.53 -3405.26 -292.984
-4750.26 -3417.28 -310.73
-4750.26 -3417.28 -310.73
-4253.02 -3432.61 -176.254
-4253.02 -3432.61 -176.254
-4942.66 -3431.85 -290.466
-4085.04 -3454.84 -202.423
-4085.04 -3454.84 -202.423
-5216.09 -3470.53 -329.986
-5216.09 -3470.53 -329.986
-4672.46 -3486.84 -322.265
-4827.19 -3492.57 -375.824
-3937.07 -1997.49 -279.586
-4001.86 -2001.31 -342.285
-3670.71 -2058.57 -347.244
-3682.95 -2062.65 -349.624
-3731.91 -2078.99 -359.268
-3740.2 -2083.14 -347.305
-4321.43 -2128.75 -274.414
-5151.52 -2196.62 -262.802
-5147.36 -2204.78 -268.722
-5037.19 -2202.78 -250.824
-4247.52 -2214.59 -304.931
-4256.68 -2217.15 -211.578
-4996.33 -2348.29 -249.282
-4996.33 -2348.29 -249.282
-4759.57 -2426.25 -217.025
-3707.99 -2650.9 -293.396
-3707.99 -2650.9 -293.396
-3798.06 -2671.5 -279.495
-3970.7 -2674.23 -186.554
-3979.81 -2676.9 -93.0783
-4031.1 -2712.54 -280.029
-3962.58 -2735.66 -182.525
-3962.58 -2735.66 -182.525
-3671.08 -2769.61 -306.533
-4096.45 -2773.96 -286.224
-4027.45 -2778.32 -244.461
-3756.96 -2786.04 -303.024
-3969.69 -2810.82 -288.345
-4162.06 -2827.4 -267.578
-4248.38 -2977.3 -223.526
-4092.72 -2993.42 -251.495
-4289.46 -3063.5 -204.513
-5020.79 -3131.01 -254.348
-4346.35 -3184.18 -238.586
-4191.74 -3295.38 -164.779
-4799.02 -3402.78 -336.456
-4803.18 -3411.03 -330.551
-4371.49 -3410.05 -182.464
-4371.49 -3410.05 -182.464
-4195.28 -3442.47 -219.558
-4199.83 -3449 -173.263
-4759.08 -2180.11 -257.843
-4981.72 -2193.34 -110.092
-3825.91 -2285.89 -359.695
-4047.28 -2360.06 -296.966
-5061.15 -2487.33 -296.402
-3826.7 -2946.05 -278.259
-4177.97 -3007.45 -305.175
-4187.22 -3016.34 -210.876
-4326.05 -3102.3 -227.493
-4162.71 -3336.03 -206.298
-5002.64 -3355.19 -400.1
-4358.59 -3098.11 -240.905
-4889.57 -3192.16 -286.453
-4889.57 -3192.16 -286.453
-4268.98 -3258.09 -213.455
-4138 -3348.18 -221.969
-4309.63 -2139.21 -231.262
-4914.04 -2729.09 -291.351
-4914.04 -2729.09 -291.351
-4522.13 -2794.9 -242.019
-4522.13 -2794.9 -242.019
-4023.83 -3135.27 -190.307
-4865.1 -3143.03 -281.616
-3859.47 -3294.4 -271.103
-5199.93 -3388.75 -313.354
-4677.13 -3450.37 -275.238
-3925.83 -3057.46 -175.384
-4971.11 -3425.63 -305.526
-4971.11 -3425.63 -305.526
-5202.32 -2049.78 -129.898
-4497.43 -2122.73 -257.37
-3034.22 -3536.12 -462.036
-2752.27 -3548.37 -457.87
-2721.59 -3558.57 -462.127
-2686.84 -3565.81 -452.835
-2609.33 -3571.94 -448.44
-2705.2 -3611.75 -465.942
-3025.99 -3613.85 -473.678
-2686.94 -3627.26 -451.812
-2650.02 -3667.06 -465.606
-2654.33 -3680.64 -438.69
-2343.64 -3680.36 -456.482
-3097.57 -3682.68 -451.477
-3291.65 -3699.05 -462.204
-2913.67 -3755.27 -460.556
-2748.27 -3757.28 -443.725
-2799.33 -3781.93 -445.297
-3077.46 -3794.56 -419.449
-3122.41 -3795.66 -415.191
-2180.39 -3830.15 -416.626
-2615.66 -3834.32 -419.052
-2188.63 -3835.36 -404.648
-2492.8 -3849.53 -437.485
-2229.55 -3861.98 -405.182
-2105.01 -3862.22 -370.254
-2362.16 -3865.87 -429.931
-2656.35 -3868.08 -436.249
-2482.61 -3867.83 -451.172
-2109.25 -3875.79 -343.765
-2250.12 -3908.34 -375.641
-3210.23 -3910.3 -423.858
-2861.04 -3916.59 -395.675
-2730.13 -3916.41 -409.424
-2274.59 -3917.46 -380.554
-2205.24 -3922.81 -360.168
-2505.15 -3927.51 -419.845
-2209.28 -3932.9 -374.145
-2209.28 -3932.9 -374.145
-2378.52 -3933.68 -407.364
-2440.22 -3963.67 -376.159
-2144.05 -3971.12 -333.45
-2144.05 -3971.12 -333.45
-2125.65 -3971.31 -320.587
-2125.65 -3971.31 -320.587
-2427.95 -3974.98 -373.977
-2427.95 -3974.98 -373.977
-2125.74 -3981.48 -319.626
-2838.44 -3984.05 -408.539
-2838.44 -3984.05 -408.539
-2795.57 -3986.16 -395.584
-2573.04 -4009.86 -379.684
-2813.96 -4012.81 -403.747
-2176.8 -4016.39 -321.213
-2822.19 -4021.11 -391.998
-2601.56 -4023.11 -379.501
-2693.55 -4028.23 -381.775
-2613.94 -4038.65 -361.587
-3073.59 -4053 -385.406
-2281.06 -4068.7 -311.233
-2942.87 -4073.47 -378.097
-2242.39 -4088.41 -286.514
-2742.73 -4115.62 -351.44
-2456.95 -4129.19 -311.661
-2785.76 -4136.33 -329.773
-2756.95 -4136.11 -351.745
-2279.23 -4139.53 -292.663
-2313.97 -4162.2 -283.157
-2712.24 -4162.92 -334.686
-2305.76 -4169.25 -294.784
-2920.38 -4189.24 -371.032
-2763.44 -4189.7 -320.755
-3022.66 -4222.2 -358.963
-2405.94 -4245.17 -285.568
-2213.78 -4277.88 -287.582
-2213.78 -4277.88 -287.582
-2643.18 -4323.19 -278.045
-2651.17 -4324.05 -302.078
-2373.15 -4326.97 -293.243
-3014.79 -4373.05 -329.239
-2299.73 -4380.5 -263.885
-2299.73 -4380.5 -263.885
-2510.37 -4416.48 -269.226
-2541.05 -4514.9 -265.106
-2453.14 -4554.82 -257.309
-2677.86 -4557.76 -283.569
-2661.67 -4566.14 -266.327
-2516.32 -4572.04 -281.86
-2628.95 -4619.4 -258.926
-2729.13 -4676.97 -250.152
-2588.13 -4705.46 -257.095
-2510.09 -4705.08 -291.183
-2888.71 -4735.57 -235.26
-2473.3 -4742.91 -289.291
-2798.78 -4922 -229.66
-2854.02 -4953.94 -225.189
-2978.46 -4990.42 -261.535
-2950.11 -5058.37 -226.822
-2233.49 -3531.13 -420.303
-2323.26 -3535.05 -445.938
-3263.2 -3537.41 -447.479
-2637.7 -3539.97 -482.94
-2637.7 -3539.97 -482.94
-2409.23 -3541.43 -421.783
-2276.27 -3540.17 -438.965
-2762.63 -3542.37 -442.474
-2170.21 -3545.54 -411.178
-3187.68 -3546.7 -436.157
-3114.02 -3546.55 -447.113
-2852.33 -3549.38 -468.796
-2852.33 -3549.38 -468.796
-2517.43 -3549.49 -440.704
-2799.05 -3550.26 -485.992
-2470.38 -3551.48 -448.7
-3462.02 -3553.56 -372.009
-3462.02 -3553.56 -372.009
-3308.22 -3552.93 -437.988
-2864.75 -3555.7 -450.485
-2298.99 -3555.83 -405.411
-2909.67 -3557.77 -446.35
-2213 -3572 -429.886
-3416.99 -3572.87 -381.454
-3167.01 -3573.08 -466.125
-3220.24 -3583.45 -449.569
-2960.43 -3584.07 -488.785
-2737.98 -3584.22 -458.328
-3394.21 -3587.93 -414.474
-2680.75 -3587.26 -460.815
-2423.54 -3591.59 -421.112
-3179.21 -3593.52 -468.796
-2770.68 -3593.5 -451.492
-2770.68 -3593.5 -451.492
-2505.17 -3594.56 -438.598
-2940.19 -3595.51 -462.646
-2717.48 -3595.41 -467.895
-2664.39 -3599.53 -464.355
-3079.38 -3601.95 -436.798
-3146.62 -3605.91 -455.688
-2592.92 -3607.75 -452.423
-3427.17 -3610.71 -386.642
-2617.56 -3610.97 -436.645
-2974.93 -3613.95 -467.392
-2866.59 -3613.86 -468.658
-3335.11 -3617.76 -399.17
-3116.05 -3618.25 -444.534
-2668.64 -3618.18 -438.141
-2668.64 -3618.18 -438.141
-2639.85 -3620.03 -460.113
-2835.86 -3629.19 -473.388
-2662.27 -3633.27 -467.956
-2415.28 -3635.48 -433.197
-2576.69 -3636.57 -435.608
-2552.09 -3637.46 -451.034
-2952.61 -3638.68 -444.336
-2807.45 -3646.78 -453.644
-3034.33 -3648.98 -442.123
-2619.47 -3649.7 -454.223
-2737.96 -3650.76 -458.557
-3295.79 -3657.19 -456.192
-2795.1 -3657.88 -471.222
-3392.14 -3660.6 -417.434
-3069.03 -3660.17 -451.919
-2319.14 -3661.95 -451.889
-3289.61 -3668.37 -464.905
-3060.76 -3669.28 -463.897
-3392.53 -3674.29 -376.358
-3318.56 -3678.99 -423.08
-2674.81 -3679.67 -429.321
-3291.63 -3680.65 -462.433
-2801.26 -3683.57 -462.57
-2854.51 -3685.73 -445.724
-3089.53 -3687.88 -442.398
-2662.1 -3687.58 -469.681
-2102.86 -3688.96 -393.402
-2817.66 -3689.72 -458.709
-2607.37 -3689.83 -431.35
-3388.18 -3693.5 -403.03
-2298.95 -3695.06 -405.792
-2846.26 -3694.85 -457.702
-2846.26 -3694.85 -457.702
-3107.77 -3698.01 -456.634
-3218.34 -3699.32 -432.205
-3083.37 -3700.09 -450.958
-3083.37 -3700.09 -450.958
-2482.6 -3708.08 -451.355
-2429.43 -3709.02 -453.323
-2778.82 -3713.2 -459.64
-2682.93 -3714.44 -437.683
-2264.19 -3714.43 -415.71
-2781 -3715.47 -436.584
-2748.27 -3717.44 -443.603
-2697.23 -3716.49 -437.195
-3185.58 -3721.77 -439.499
-2633.95 -3722.68 -428.161
-2879 -3730.75 -450.5
-2879 -3730.75 -450.5
-2926.19 -3733.06 -422.485
-2664.33 -3731.58 -464.905
-2556.18 -3733.73 -445.389
-2382.4 -3732.5 -461.044
-3095.93 -3737.31 -412.628
-2809.55 -3736.89 -450.302
-2215.2 -3738.06 -406.25
-2617.69 -3739.13 -416.382
-2366.13 -3741.87 -444.519
-2552.2 -3745.12 -430.908
-2552.2 -3745.12 -430.908
-2760.5 -3751.18 -446.167
-2825.92 -3753.32 -446.716
-2997.47 -3756.37 -455.169
-2605.18 -3763.33 -454.651
-3189.74 -3764.82 -433.243
-2887.14 -3767.53 -458.572
-3081.28 -3769.69 -454.208
-3081.28 -3769.69 -454.208
-2981.24 -3769.85 -438.492
-3306.12 -3770.98 -441.406
-3022.29 -3771.05 -419.021
-3457.87 -3773.66 -378.112
-3202.15 -3775.26 -415.252
-2572.56 -3776.77 -441.62
-2901.58 -3776.94 -437.759
-2715.65 -3780.02 -430.679
-2094.6 -3781.02 -405.624
-2973.02 -3780.98 -450.058
-2682.94 -3783.02 -437.607
-2770.83 -3788.26 -431.122
-3204.03 -3789.42 -432.831
-3142.64 -3789.32 -441.421
-3142.64 -3789.32 -441.421
-2229.48 -3792.4 -405.975
-2615.65 -3794.37 -419.159
-3189.73 -3795.56 -433.38
-2376.35 -3796.09 -449.524
-2805.42 -3803.38 -456.253
-2229.59 -3804.8 -385.666
-2229.59 -3804.8 -385.666
-2568.42 -3806.41 -447.769
-2419.24 -3806.33 -447.967
-2909.85 -3810.84 -425.705
-2958.68 -3811.69 -451.034
-2958.68 -3811.69 -451.034
-2707.41 -3822.91 -442.596
-3595.5 -3830.76 -299.85
-2253.98 -3833.25 -410.568
-3138.51 -3834.33 -447.387
-2319.12 -3834.95 -452.087
-2591.13 -3837.44 -414.718
-2591.13 -3837.44 -414.718
-2417.35 -3839.28 -430.13
-2574.62 -3845.4 -438.705
-2153.95 -3853.87 -394.485
-2511.21 -3855.52 -450.119
-2115.21 -3858.09 -375.519
-3179.72 -3859.28 -407.547
-2143.69 -3865.18 -389.892
-2094.79 -3864.33 -365.234
-2760.81 -3865.23 -405.182
-2760.81 -3865.23 -405.182
-2517.55 -3870.14 -420.486
-2347.83 -3869.94 -430.755
-2691.33 -3873.43 -405.273
-2323.4 -3874.14 -425.308
-3214.42 -3875.51 -417.343
-2168.22 -3878.45 -394.287
-2168.22 -3878.45 -394.287
-2903.83 -3887.75 -414.016
-2119.44 -3889.06 -349.151
-2119.44 -3889.06 -349.151
-2960.74 -3889.52 -448.044
-3014.02 -3896.87 -430.984
-2337.79 -3897.87 -404.739
-2734.18 -3903.17 -404.205
-2734.18 -3903.17 -404.205
-2186.79 -3904.32 -366.974
-3073.31 -3906.15 -425.735
-2454.47 -3908.38 -376.144
-3106.06 -3912.37 -418.518
-2284.79 -3913.36 -385.788
-2143.84 -3918.64 -369.064
-2123.57 -3917.79 -342.941
-3181.64 -3919.52 -424.789
-3075.38 -3920.5 -422.683
-2568.56 -3927.41 -427.368
-3206.26 -3932.98 -409.53
-3005.91 -3938.94 -422.592
-3005.91 -3938.94 -422.592
-2734.37 -3939.16 -383.346
-2773.21 -3946.3 -387.039
-2515.43 -3945.91 -424.087
-2154.27 -3946.63 -333.542
-2154.27 -3946.63 -333.542
-2444.03 -3950.01 -411.468
-2274.71 -3952.48 -360.153
-3204.19 -3953.43 -412.567
-2209.44 -3954.83 -334.183
-2893.59 -3961.5 -409.332
-2454.29 -3962.47 -397.003
-2156.21 -3964.9 -351.044
-2754.75 -3965.69 -393.966
-2576.95 -3969.69 -395.004
-2805.65 -3971.72 -416.26
-3071.25 -3975.72 -428.65
-2711.83 -3980.01 -395.645
-2472.62 -3983.94 -405.807
-2885.5 -3986.19 -400.726
-3259.54 -3988.44 -392.593
-2446.19 -3989.16 -388.412
-2154.23 -3991.67 -333.999
-2683.23 -3994.35 -396.682
-2589.15 -3995.24 -397.873
-2495.38 -3995.48 -372.04
-2957.25 -3996.64 -376.785
-3087.56 -3998.24 -425.628
-2726.07 -3998.39 -395.828
-2854.93 -4000.65 -384.887
-2854.93 -4000.65 -384.887
-3496.84 -4002.22 -362.06
-2168.43 -4007.88 -353.714
-3120.52 -4008.82 -397.613
-2583.06 -4008.53 -405.777
-2213.46 -4009.97 -348.511
-2750.92 -4011.08 -359.07
-2452.51 -4010.95 -359.054
-2156.41 -4013.42 -310.516
-2734.4 -4012.91 -383.117
-2142.2 -4014.55 -295.883
-3061.23 -4016.95 -402.954
-3112.27 -4018.92 -409.378
-2129.86 -4020.47 -313.644
-2912.18 -4023.22 -382.339
-3053.11 -4029.31 -394.623
-2556.59 -4029.15 -384.231
-2154.38 -4030.82 -313.263
-3330.9 -4030.36 -405.899
-2138.1 -4032.87 -301.636
-3200.21 -4032.42 -398.3
-2193.29 -4037.12 -297.134
-3525.65 -4041.35 -340.439
-2922.41 -4041.61 -387.192
-2638.39 -4043.63 -381.057
-3040.86 -4045.73 -392.318
-3000.16 -4048 -370.681
-3000.16 -4048 -370.681
-2879.43 -4045.68 -389.496
-2458.82 -4049.12 -329.712
-2997.94 -4049.8 -394.073
-2997.94 -4049.8 -394.073
-2195.24 -4051.28 -314.529
-2752.85 -4051.9 -376.343
-3100.17 -4054.98 -386.886
-2777.36 -4058.23 -361.969
-2307.68 -4058.46 -312.393
