ply
format ascii 1.0
comment author: Caleb Adams & Jackson Parker
comment SSRL CV simple PLY writer
element vertex 1861
property float x
property float y
property float z
end_header
-4.56079 5.03226 0.436264
-4.56079 5.03226 0.436264
-5.59897 5.03381 0.42775
-5.59897 5.03381 0.42775
-5.72384 5.03403 0.409119
-5.4023 5.02835 0.46553
-4.92482 5.02721 0.410126
-5.5336 5.02782 0.423553
-5.76291 5.02803 0.394226
-5.77519 5.02587 0.391953
-4.59578 5.02227 0.414459
-5.69127 5.02387 0.401367
-5.69127 5.02387 0.401367
-5.44332 5.0213 0.453003
-5.6561 5.01534 0.430908
-5.46989 5.01313 0.451675
-5.82012 5.01361 0.398453
-4.49736 5.00863 0.444153
-5.52509 5.01106 0.452789
-5.67675 5.00924 0.42157
-5.68899 5.00526 0.418777
-5.68899 5.00526 0.418777
-5.44733 5.0028 0.459137
-5.68728 5.00352 0.395447
-5.68728 5.00352 0.395447
-5.00434 4.99735 0.426971
-5.00434 4.99735 0.426971
-4.77348 4.99543 0.421875
-5.82836 4.99529 0.389511
-4.80609 4.99124 0.429733
-4.80609 4.99124 0.429733
-5.76726 4.99133 0.380768
-4.58573 4.98767 0.399323
-5.54127 4.98855 0.455139
-5.46131 4.98311 0.479858
-5.72787 4.98483 0.415527
-5.47386 4.9824 0.45726
-5.60497 4.98052 0.436813
-5.60497 4.98052 0.436813
-5.66814 4.98028 0.449661
-5.00008 4.97773 0.441315
-5.06951 4.97668 0.442368
-5.76663 4.97852 0.420715
-4.39719 4.97489 0.450699
-5.71357 4.97669 0.414566
-5.53933 4.97422 0.453003
-4.63846 4.9708 0.437866
-5.68645 4.97103 0.456924
-5.73604 4.97047 0.415726
-5.13887 4.96727 0.451996
-4.41347 4.96359 0.454239
-5.10427 4.96434 0.441071
-4.49139 4.9627 0.435715
-5.17547 4.963 0.466064
-5.71957 4.96427 0.423706
-5.01033 4.96143 0.435684
-5.86527 4.96058 0.383606
-5.73429 4.95846 0.391846
-5.74829 4.95203 0.413116
-5.74829 4.95203 0.413116
-4.78174 4.9485 0.413467
-5.48992 4.94931 0.482101
-4.5139 4.94437 0.427841
-5.83867 4.9463 0.384659
-4.57081 4.93591 0.451141
-4.53423 4.92996 0.437881
-5.0733 4.92827 0.469223
-5.50617 4.92781 0.485519
-5.16117 4.92517 0.465012
-5.77095 4.92759 0.406906
-4.54425 4.92362 0.452621
-5.5884 4.923 0.453232
-5.79524 4.92328 0.422928
-4.60382 4.91773 0.426666
-5.8447 4.91955 0.394165
-4.83065 4.9156 0.425354
-4.8818 4.91566 0.419693
-5.36288 4.91634 0.509399
-4.78777 4.91358 0.422668
-5.08168 4.91412 0.448212
-5.68901 4.91318 0.419037
-4.62615 4.90937 0.439682
-4.76322 4.91046 0.4272
-5.75236 4.909 0.420029
-5.4613 4.90537 0.479752
-5.76721 4.9054 0.380035
-5.86471 4.90485 0.424789
-5.66442 4.9029 0.423218
-5.6767 4.90294 0.420944
-5.76263 4.90191 0.414612
-5.74067 4.90129 0.381821
-4.55656 4.89705 0.450867
-4.67733 4.89819 0.43457
-4.99785 4.89771 0.458908
-5.43075 4.89827 0.475403
-4.53429 4.89515 0.438599
-5.71558 4.89686 0.417633
-4.50339 4.89295 0.453201
-4.50339 4.89295 0.453201
-5.00836 4.89189 0.433136
-5.04667 4.89144 0.469727
-5.18977 4.88733 0.466995
-5.66242 4.88864 0.420074
-5.73405 4.88866 0.412796
-4.58132 4.88506 0.425705
-4.63057 4.88527 0.404236
-4.51816 4.88315 0.413666
-5.4576 4.8842 0.453766
-5.71559 4.88354 0.417862
-5.86928 4.88076 0.389801
-4.70009 4.87092 0.406357
-5.20206 4.87096 0.464935
-5.38571 4.87168 0.481583
-5.48614 4.86786 0.455109
-5.63584 4.86816 0.421295
-5.7546 4.86933 0.402191
-5.82837 4.86648 0.389679
-5.84465 4.86329 0.393524
-5.84465 4.86329 0.393524
-5.35486 4.85718 0.497131
-4.79829 4.85459 0.397171
-4.98778 4.85289 0.443253
-5.36713 4.8521 0.494675
-4.63062 4.85049 0.404907
-5.80753 4.85165 0.420837
-5.25484 4.84907 0.490891
-5.07128 4.84648 0.465912
-5.21806 4.84612 0.48877
-5.35286 4.8429 0.494125
-4.47528 4.84022 0.411133
-4.50585 4.84019 0.415497
-5.27167 4.84029 0.454208
-4.78598 4.83817 0.399048
-4.78598 4.83817 0.399048
-5.43729 4.83627 0.443558
-5.52099 4.83523 0.445389
-5.83405 4.83536 0.418701
-5.09974 4.83196 0.475616
-5.34692 4.83178 0.485947
-5.34692 4.83178 0.485947
-5.16523 4.82993 0.471664
-5.02442 4.82613 0.457535
-5.18545 4.82269 0.480606
-5.3734 4.82463 0.483398
-5.2997 4.82138 0.49646
-5.64641 4.82245 0.395798
-5.64641 4.82245 0.395798
-5.84258 4.8235 0.389465
-5.22607 4.81937 0.500839
-5.64984 4.82086 0.442581
-5.54335 4.81768 0.459274
-5.4759 4.81664 0.460815
-5.7809 4.81487 0.421402
-5.06925 4.81175 0.462677
-5.35085 4.8092 0.490997
-5.35085 4.8092 0.490997
-5.37746 4.80919 0.490143
-5.37746 4.80919 0.490143
-5.7649 4.8111 0.397125
-5.4862 4.80746 0.45575
-4.90214 4.80507 0.430054
-4.72467 4.80343 0.402115
-5.36514 4.80303 0.491837
-4.93261 4.80073 0.442673
-5.69697 4.79644 0.430634
-4.92484 4.79088 0.41037
-4.99981 4.79333 0.461426
-5.77122 4.79484 0.386292
-4.6101 4.78895 0.415771
-4.6101 4.78895 0.415771
-4.92662 4.78855 0.433975
-5.06923 4.78925 0.462463
-5.54733 4.78896 0.465103
-5.19778 4.78692 0.479095
-5.33056 4.78679 0.481064
-4.94089 4.78548 0.43457
-5.36514 4.78461 0.491852
-5.83439 4.78648 0.399063
-4.7142 4.78265 0.428299
-4.7142 4.78265 0.428299
-5.71129 4.7821 0.431961
-4.46118 4.7791 0.389587
-5.53305 4.77668 0.464371
-4.65948 4.77497 0.386826
-4.89386 4.77529 0.438293
-5.19175 4.77482 0.469696
-5.19175 4.77482 0.469696
-5.6501 4.77505 0.42189
-5.0101 4.77296 0.456299
-5.51936 4.77307 0.423325
-5.11804 4.77051 0.482666
-5.50676 4.76871 0.445312
-4.49579 4.76672 0.400269
-5.20405 4.76148 0.467743
-5.67471 4.76388 0.417984
-4.8916 4.75872 0.455383
-5.22034 4.75835 0.471588
-5.87954 4.76007 0.384186
-5.46361 4.7542 0.462997
-5.46361 4.7542 0.462997
-4.56324 4.75239 0.398514
-4.6695 4.75229 0.401596
-5.69501 4.75351 0.42807
-5.74033 4.75374 0.401505
-5.86094 4.75383 0.397369
-4.69386 4.75006 0.418015
-4.78175 4.74999 0.413651
-5.648 4.75158 0.41745
-5.67076 4.75168 0.412674
-5.74633 4.75159 0.410614
-5.76093 4.7508 0.391434
-4.59602 4.74829 0.394241
-4.59602 4.74829 0.394241
-5.18549 4.747 0.481064
-5.62156 4.7495 0.420639
-4.72468 4.74613 0.402313
-4.76345 4.74602 0.406845
-5.47587 4.74604 0.460419
-5.70554 4.74768 0.402039
-4.74892 4.74371 0.426331
-5.02438 4.7443 0.457001
-5.1042 4.74233 0.440323
-5.12654 4.73914 0.453613
-5.74031 4.74045 0.401199
-5.86326 4.74175 0.380493
-4.78174 4.73772 0.413513
-5.63188 4.73932 0.415909
-4.75919 4.73563 0.421066
-4.80407 4.73554 0.42659
-5.11403 4.73171 0.476593
-5.22836 4.73162 0.48381
-5.68897 4.73317 0.418533
-5.08172 4.72795 0.448715
-5.19175 4.72566 0.469696
-4.49 4.72409 0.370956
-4.49 4.72409 0.370956
-4.8039 4.71997 0.447784
-5.13038 4.71835 0.481262
-5.71566 4.72093 0.418777
-5.14888 4.7175 0.467148
-5.14888 4.7175 0.467148
-4.78979 4.7161 0.425903
-5.50048 4.71542 0.456619
-5.67667 4.71675 0.420532
-4.90388 4.71274 0.453217
-4.90388 4.71274 0.453217
-5.38141 4.71196 0.495605
-5.39191 4.71123 0.469345
-5.40845 4.71126 0.462387
-5.86732 4.71313 0.387405
-4.56528 4.70837 0.40184
-4.6043 4.70951 0.386215
-4.61837 4.70919 0.407562
-4.93865 4.7065 0.452042
-4.72421 4.70473 0.442978
-5.44727 4.70514 0.458405
-5.589 4.70662 0.413101
-5.87757 4.70487 0.381668
-5.83038 4.7027 0.392883
-5.6398 4.70032 0.426895
-5.72358 4.70031 0.429825
-5.81608 4.70064 0.391769
-4.67352 4.698 0.407791
-5.52533 4.6983 0.431992
-4.85701 4.69441 0.444687
-5.2203 4.69496 0.471054
-5.2203 4.69496 0.471054
-5.54543 4.69486 0.463333
-5.67466 4.69436 0.417343
-5.09599 4.69112 0.449249
-5.26139 4.68888 0.459427
-5.59294 4.68918 0.418335
-4.97955 4.68707 0.452026
-5.08571 4.68593 0.454483
-5.20829 4.68697 0.453171
-5.39195 4.68671 0.469803
-5.85488 4.68843 0.387466
-5.5353 4.68485 0.44664
-5.87093 4.68507 0.412552
-4.81035 4.68246 0.415588
-4.86502 4.68302 0.456665
-5.14687 4.68069 0.463928
-5.44731 4.6806 0.458878
-5.70527 4.68198 0.422592
-4.93888 4.67605 0.431519
-5.37572 4.67651 0.46669
-4.76945 4.67428 0.415588
-5.51674 4.67547 0.460098
-5.55564 4.6755 0.45726
-5.6704 4.67367 0.431946
-4.82842 4.6709 0.442978
-5.69699 4.6706 0.430862
-5.22232 4.66626 0.474365
-5.22232 4.66626 0.474365
-5.43503 4.66524 0.461121
-5.11027 4.66244 0.450043
-5.62982 4.66265 0.412094
-4.81434 4.65783 0.421341
-5.37569 4.65809 0.4664
-5.50077 4.65833 0.436432
-5.70761 4.65966 0.406036
-5.66041 4.65543 0.416962
-5.45561 4.65206 0.450867
-5.49069 4.65239 0.420425
-5.85585 4.65742 0.327652
-4.58596 4.64821 0.378967
-4.74078 4.6455 0.427017
-4.89963 4.64606 0.46759
-5.11234 4.64606 0.453918
-5.36769 4.64593 0.454391
-5.50444 4.6458 0.462067
-5.71955 4.64616 0.423386
-4.78174 4.64364 0.413498
-4.97529 4.6429 0.466385
-5.0917 4.64186 0.463257
-5.22037 4.63868 0.471985
-5.70134 4.63906 0.417496
-5.05098 4.63591 0.456116
-5.18346 4.62939 0.477798
-4.65293 4.62829 0.417587
-5.61748 4.62888 0.413544
-4.77124 4.62288 0.439209
-4.77124 4.62288 0.439209
-5.04671 4.62343 0.470306
-5.11631 4.62144 0.459412
-5.46789 4.62242 0.4487
-5.59469 4.61833 0.442108
-4.67529 4.61586 0.43103
-5.31653 4.61521 0.459747
-4.96729 4.61235 0.454514
-4.95319 4.60852 0.432632
-5.15297 4.609 0.474274
-5.12429 4.60597 0.471176
-4.69786 4.60573 0.423813
-4.75291 4.60248 0.432068
-4.94287 4.60029 0.437225
-5.81807 4.60243 0.39473
-5.02035 4.59809 0.450806
-5.0512 4.59827 0.435303
-4.70811 4.59654 0.418289
-5.36513 4.59745 0.491745
-4.82841 4.59418 0.442749
-4.93687 4.59015 0.428406
-5.60326 4.59104 0.413605
-5.81009 4.5903 0.382797
-4.72644 4.58421 0.42543
-4.86929 4.58189 0.442444
-5.00008 4.58286 0.441223
-4.84469 4.57981 0.446381
-4.9099 4.57861 0.462234
-5.36721 4.57902 0.495789
-5.01211 4.57441 0.459427
-5.01211 4.57441 0.459427
-5.16746 4.57138 0.453873
-5.00181 4.5703 0.464386
-5.43484 4.56984 0.482559
-4.8121 4.56864 0.438766
-5.16918 4.56908 0.47702
-5.33082 4.5661 0.460648
-5.07557 4.56229 0.452026
-5.51682 4.56093 0.461121
-5.51682 4.56093 0.461121
-4.99384 4.55614 0.453018
-5.34058 4.55545 0.496323
-5.34058 4.55545 0.496323
-5.37742 4.55554 0.489655
-5.57638 4.55601 0.434921
-5.84064 4.55341 0.387314
-4.81632 4.5453 0.423981
-5.44932 4.54555 0.462021
-5.46789 4.5457 0.448685
-5.79779 4.54729 0.384872
-5.49645 4.54161 0.450226
-5.77691 4.54386 0.415405
-5.54334 4.54047 0.459137
-5.57235 4.54073 0.428421
-5.12862 4.53555 0.457657
-5.74431 4.53374 0.407242
-5.04467 4.53144 0.466827
-5.45559 4.53134 0.450623
-5.73209 4.53165 0.410431
-4.95695 4.52843 0.458878
-5.60693 4.52425 0.439346
-5.78948 4.52473 0.392807
-5.71954 4.5224 0.423264
-4.73845 4.51855 0.443146
-5.43502 4.5169 0.461029
-5.6538 4.51801 0.44809
-5.6538 4.51801 0.44809
-4.97351 4.51022 0.442642
-5.72784 4.51221 0.415161
-5.62725 4.50365 0.449692
-5.62725 4.50365 0.449692
-4.72397 4.4999 0.463272
-4.99984 4.49563 0.461807
-5.15943 4.49682 0.44165
-5.08599 4.49487 0.434448
-5.098 4.49265 0.452377
-5.63953 4.48936 0.447327
-5.63953 4.48936 0.447327
-5.14113 4.48055 0.434723
-4.80834 4.47893 0.41243
-4.7938 4.47563 0.431961
-5.53738 4.46998 0.450729
-4.83457 4.45926 0.430237
-5.47789 4.46064 0.463684
-5.64409 4.46116 0.412643
-5.71131 4.45781 0.432159
-5.44109 4.45645 0.470947
-5.06348 4.45407 0.433105
-5.17974 4.45379 0.451752
-5.58436 4.45359 0.446747
-5.29568 4.44916 0.49025
-5.65411 4.45074 0.42804
-4.73851 4.44693 0.443985
-5.59665 4.44849 0.44458
-5.53094 4.44534 0.459747
-5.0472 4.44387 0.429367
-5.67867 4.44464 0.423553
-5.69707 4.44255 0.431976
-5.07768 4.43545 0.442307
-5.34884 4.4359 0.487854
-5.34884 4.4359 0.487854
-5.60899 4.43522 0.443176
-5.21661 4.43336 0.445358
-4.81436 4.43074 0.4216
-5.63366 4.43113 0.440125
-5.46534 4.42664 0.486435
-5.05322 4.42535 0.438614
-5.24311 4.42102 0.452774
-5.60495 4.41994 0.436584
-5.50672 4.41479 0.444824
-5.5785 4.41481 0.439453
-5.66845 4.41389 0.429611
-4.75139 4.41269 0.388412
-5.52498 4.41172 0.451355
-5.22043 4.40859 0.472855
-4.78172 4.4073 0.413239
-5.54931 4.40637 0.46788
-5.23261 4.40448 0.469315
-5.61748 4.40281 0.413467
-5.61748 4.40281 0.413467
-5.60497 4.39845 0.436813
-4.8449 4.38567 0.42569
-5.26515 4.37967 0.486191
-5.51473 4.37991 0.457001
-5.67874 4.37812 0.424561
-5.30996 4.37553 0.491013
-5.73232 4.37744 0.389252
-5.72386 4.37522 0.409317
-5.72386 4.37522 0.409317
-5.2794 4.36941 0.486481
-5.32231 4.36936 0.489716
-5.69331 4.37119 0.404938
-5.74462 4.37134 0.387222
-5.61295 4.36662 0.448608
-5.6747 4.36491 0.417892
-5.49846 4.35846 0.453339
-5.68922 4.359 0.397736
-5.63384 4.3557 0.418381
-4.90639 4.35203 0.415695
-5.24505 4.35133 0.454956
-5.27941 4.35102 0.486618
-4.91397 5.93786 0.46907
-5.44814 5.93656 0.397934
-4.92634 5.92786 0.453903
-5.5858 5.93107 0.345428
-4.99979 5.9165 0.461075
-5.06326 5.9115 0.453873
-5.45815 5.91279 0.413071
-5.5898 5.91361 0.351486
-5.41983 5.90516 0.375916
-5.37398 5.89813 0.443283
-5.61238 5.90044 0.34407
-5.48929 5.89188 0.377197
-4.66325 5.88775 0.412933
-4.66325 5.88775 0.412933
-5.07969 5.88492 0.445343
-4.92433 5.88291 0.450775
-4.92433 5.88291 0.450775
-5.03867 5.87974 0.457962
-5.49331 5.87129 0.383591
-5.09399 5.86342 0.44635
-5.55704 5.86149 0.355453
-4.97122 5.84799 0.459488
-5.07553 5.8389 0.451492
-5.60782 5.83648 0.378784
-5.49932 5.83229 0.392654
-5.01009 5.82349 0.456268
-5.39682 5.82488 0.415543
-5.08775 5.82233 0.457977
-5.06551 5.82072 0.436417
-5.45614 5.82078 0.410004
-5.48302 5.82007 0.388687
-5.5608 5.81709 0.382385
-4.89334 5.80895 0.478455
-5.42958 5.80337 0.411499
-5.53418 5.7874 0.383224
-4.97951 5.77753 0.451447
-5.52789 5.77087 0.394363
-4.9226 5.76662 0.427719
-4.9226 5.76662 0.427719
-5.37402 5.76101 0.443787
-5.51788 5.75371 0.379166
-5.13913 5.7511 0.431717
-4.99804 5.74706 0.437744
-4.99804 5.74706 0.437744
-4.89159 5.74483 0.455231
-5.36998 5.74378 0.437195
-4.95717 5.73679 0.438248
-5.0141 5.73338 0.462296
-5.35591 5.73083 0.415329
-5.35591 5.73083 0.415329
-4.98954 5.72515 0.466644
-5.46672 5.72294 0.384674
-4.9572 5.70816 0.438599
-4.73646 5.70118 0.440384
-4.73646 5.70118 0.440384
-5.05122 5.70205 0.435547
-5.39884 5.69392 0.418716
-5.43986 5.69501 0.406174
-4.92657 5.68877 0.433289
-5.16773 5.6897 0.433685
-4.88558 5.68769 0.446228
-4.96347 5.67967 0.427353
-4.9797 5.6745 0.430389
-5.39307 5.67286 0.388901
-5.33765 5.66336 0.408966
-5.33765 5.66336 0.408966
-5.30907 5.65929 0.407166
-5.13316 5.64278 0.423187
-5.34367 5.64379 0.418182
-5.14742 5.63871 0.423691
-4.52419 5.63195 0.422775
-5.87074 5.62896 0.287888
-5.55161 5.62788 0.305939
-5.04922 5.6223 0.432571
-5.02664 5.62016 0.439819
-5.02664 5.62016 0.439819
-5.45643 5.61648 0.389755
-5.27044 5.61249 0.389877
-5.79096 5.61458 0.291428
-5.79096 5.61458 0.291428
-4.94492 5.60481 0.440781
-5.3645 5.60231 0.387329
-5.15142 5.59769 0.429672
-4.9572 5.58744 0.438553
-4.95894 5.58507 0.4617
-4.71439 5.57273 0.407318
-5.04494 5.57301 0.446716
-5.09626 5.56292 0.429184
-5.64098 5.55969 0.346054
-5.00659 5.55512 0.409561
-5.27823 5.54858 0.422928
-5.33364 5.54067 0.402847
-5.84585 5.54061 0.312332
-5.32108 5.52912 0.425278
-5.82155 5.5306 0.296265
-5.5695 5.52595 0.341446
-5.74979 5.52629 0.312088
-5.31135 5.51222 0.390045
-5.31135 5.51222 0.390045
-4.61386 5.49348 0.441788
-5.1231 5.47728 0.407669
-5.21714 5.47324 0.404739
-5.61237 5.47484 0.344025
-5.61237 5.47484 0.344025
-5.39509 5.47126 0.392181
-5.86614 5.47398 0.322433
-5.86614 5.47398 0.322433
-5.57553 5.46857 0.350861
-5.16573 5.46062 0.430756
-5.16573 5.46062 0.430756
-5.11708 5.45798 0.398483
-5.18644 5.44056 0.398468
-5.18644 5.44056 0.398468
-5.43813 5.43446 0.382843
-5.07823 5.4303 0.402069
-5.17424 5.43031 0.40181
-5.32162 5.43044 0.384674
-5.20086 5.42826 0.401123
-5.12961 5.42451 0.375687
-5.14768 5.4221 0.403351
-5.25617 5.40992 0.389313
-5.31306 5.41062 0.413055
-5.20283 5.40163 0.40358
-4.33016 5.39485 0.411545
-4.33016 5.39485 0.411545
-5.76778 5.39701 0.339157
-5.23542 5.3831 0.411407
-5.73291 5.38461 0.348663
-5.25216 5.37931 0.38324
-5.66328 5.37739 0.359177
-5.17025 5.369 0.396042
-5.22315 5.36876 0.413803
-5.22315 5.36876 0.413803
-5.48702 5.35246 0.394775
-5.79838 5.34579 0.344315
-4.31767 5.33725 0.434158
-4.50945 5.32447 0.462692
-5.49302 5.31756 0.403702
-5.49302 5.31756 0.403702
-5.48958 5.31717 0.35704
-5.48958 5.31717 0.35704
-5.63638 5.29829 0.380386
-5.78808 5.29457 0.349274
-4.3277 5.28998 0.448914
-4.3277 5.28998 0.448914
-5.47245 5.28982 0.414078
-4.31343 5.28182 0.44838
-5.55046 5.28299 0.386902
-5.22715 5.2807 0.41983
-5.26818 5.27668 0.407349
-5.27648 5.26861 0.399429
-5.54189 5.2683 0.415405
-5.24363 5.26638 0.411972
-5.7695 5.26779 0.362686
-5.7695 5.26779 0.362686
-5.6324 5.25543 0.374542
-5.52588 5.24918 0.391098
-5.61813 5.24626 0.373917
-5.61813 5.24626 0.373917
-4.40297 5.23949 0.479721
-5.60151 5.24297 0.389832
-4.45225 5.23455 0.458755
-5.68357 5.23709 0.369141
-5.68357 5.23709 0.369141
-4.3603 5.23159 0.456741
-5.49703 5.2346 0.409882
-4.40297 5.22004 0.479782
-4.31944 5.21726 0.45723
-4.42746 5.21273 0.483551
-4.41929 5.20976 0.483841
-4.41929 5.20976 0.483841
-5.83266 5.20419 0.375351
-4.43549 5.19824 0.495499
-4.43549 5.19824 0.495499
-5.34165 5.19782 0.414917
-4.49134 5.19392 0.435074
-5.51332 5.19364 0.413803
-5.86361 5.19203 0.36084
-5.86361 5.19203 0.36084
-5.30626 5.18899 0.465042
-5.84494 5.18989 0.373123
-5.84494 5.18989 0.373123
-5.40083 5.1875 0.421677
-4.48105 5.18362 0.440094
-4.65273 5.18356 0.438477
-4.65273 5.18356 0.438477
-4.51546 5.174 0.471558
-5.68101 5.17524 0.406982
-5.68101 5.17524 0.406982
-4.52797 5.16713 0.449036
-4.42969 5.16283 0.46611
-5.46815 5.16277 0.428207
-4.46654 5.15779 0.459747
-4.46654 5.15779 0.459747
-4.99655 5.1604 0.394348
-5.69328 5.15276 0.40448
-4.48104 5.14889 0.440002
-5.41105 5.1495 0.42543
-5.41105 5.1495 0.42543
-5.58894 5.15061 0.412247
-5.71393 5.15075 0.395096
-4.53224 5.14686 0.434982
-4.45427 5.14139 0.46196
-4.41326 5.13621 0.474838
-4.49536 5.13247 0.441254
-5.71188 5.13246 0.391403
-5.71188 5.13246 0.391403
-4.47706 5.12743 0.434402
-4.66525 5.1286 0.416
-5.43102 5.12764 0.454941
-5.43102 5.12764 0.454941
-5.34911 5.12552 0.467484
-4.6447 5.12232 0.426331
-4.95946 5.11607 0.421326
-5.54363 5.11456 0.438965
-5.57666 5.11376 0.414566
-5.57666 5.11376 0.414566
-5.69758 5.11203 0.39035
-4.74096 5.1001 0.405899
-4.96571 5.09883 0.40979
-4.96571 5.09883 0.40979
-5.64613 5.09941 0.416183
-4.43616 5.09469 0.434448
-5.70956 5.09641 0.40831
-4.62419 5.0915 0.437347
-5.6687 5.08825 0.408859
-4.71037 5.08172 0.401245
-5.39004 5.08153 0.467957
-5.79581 5.08347 0.382019
-5.79581 5.08347 0.382019
-5.61956 5.07891 0.417603
-4.45023 5.07294 0.455704
-5.50675 5.06741 0.445114
-4.54023 5.06385 0.446625
-5.691 5.06662 0.422028
-5.45986 5.06037 0.436234
-5.21233 5.05719 0.459549
-5.38795 5.05704 0.463852
-5.61324 5.0563 0.428406
-5.42074 5.05087 0.46022
-5.76721 5.04249 0.38002
-4.6936 5.0383 0.438049
-5.83667 5.03635 0.381561
-5.83667 5.03635 0.381561
-4.74891 5.0322 0.426224
-5.65241 5.03409 0.404953
-5.81839 5.03232 0.374695
-4.82667 5.02513 0.419662
-5.61124 5.02257 0.425278
-5.15517 5.02041 0.456055
-4.55475 5.01397 0.427124
-5.58038 5.00806 0.440918
-5.79778 5.0097 0.384766
-5.48218 5.00699 0.4496
-4.95142 5.00165 0.409042
-5.49847 4.99981 0.45343
-5.75466 5.0013 0.402954
-4.55053 4.99333 0.441666
-4.55053 4.99333 0.441666
-4.53223 4.99137 0.434906
-4.80207 4.99132 0.423721
-4.48752 4.98551 0.408401
-5.56192 4.98558 0.445847
-5.63382 4.98278 0.418091
-4.59957 4.97891 0.440933
-4.55857 4.97679 0.453842
-4.55857 4.97679 0.453842
-5.64988 4.97527 0.443039
-5.64988 4.97527 0.443039
-4.83066 4.97084 0.425522
-4.76522 4.96874 0.430176
-5.20405 4.96706 0.467728
-5.4556 4.96814 0.450729
-5.4759 4.968 0.46077
-5.58067 4.96534 0.420776
-5.66242 4.96636 0.420181
-5.77521 4.96254 0.392136
-5.84662 4.95836 0.396072
-5.78751 4.95643 0.390106
-5.46333 4.95135 0.483139
-5.64811 4.95208 0.418991
-5.66639 4.94996 0.425812
-4.88983 4.94723 0.431946
-4.52395 4.94421 0.442917
-4.59957 4.94004 0.440948
-4.63443 4.93709 0.431641
-5.29569 4.93499 0.490387
-5.74433 4.93578 0.407547
-5.00433 4.93186 0.426849
-5.47591 4.92812 0.460907
-5.45959 4.92305 0.456696
-5.86323 4.92177 0.380127
-4.52414 4.91479 0.422165
-4.45851 4.91345 0.447693
-5.47564 4.90842 0.481415
-5.50243 4.90665 0.458862
-5.11656 4.89685 0.439026
-5.59694 4.89882 0.424393
-5.7033 4.89274 0.419861
-5.51476 4.8903 0.457428
-5.85264 4.88974 0.405533
-4.78804 4.88519 0.40271
-5.1975 4.88485 0.499176
-5.60525 4.88458 0.416412
-4.36679 4.877 0.425339
-5.0755 4.87118 0.451126
-5.0755 4.87118 0.451126
-5.00382 4.86897 0.467453
-5.19951 4.86334 0.502213
-5.34287 4.86558 0.479248
-5.19777 4.86158 0.478928
-5.51678 4.86162 0.460693
-5.68499 4.86212 0.412766
-4.58952 4.85839 0.42572
-5.70528 4.85792 0.422714
-5.64412 4.856 0.413055
-5.50247 4.85242 0.459442
-5.83238 4.85205 0.395859
-4.93889 4.84895 0.431519
-4.61007 4.84625 0.415329
-4.61007 4.84625 0.415329
-5.38144 4.84697 0.495941
-5.46533 4.84598 0.48613
-5.66241 4.84771 0.420029
-5.53764 4.84357 0.430099
-5.53764 4.84357 0.430099
-4.4137 4.83801 0.434143
-4.80408 4.83784 0.426666
-4.80408 4.83784 0.426666
-4.56304 4.834 0.419113
-5.86917 4.83371 0.388351
-5.55364 4.83102 0.454193
-4.94916 4.82752 0.426193
-5.6358 4.82827 0.420929
-5.81807 4.82748 0.394669
-5.26336 4.82383 0.462067
-5.58638 4.8228 0.449936
-4.60205 4.8198 0.403381
-4.64113 4.82011 0.379364
-4.93259 4.82016 0.442459
-4.76344 4.81659 0.406708
-5.13263 4.81368 0.463669
-5.61496 4.8146 0.451813
-4.48129 4.81046 0.419998
-4.48129 4.81046 0.419998
-4.62483 4.79968 0.375595
-4.74074 4.79802 0.426407
-4.74074 4.79802 0.426407
-4.8778 4.80014 0.413925
-5.22435 4.79713 0.477692
-5.61126 4.79753 0.425568
-4.65095 4.79203 0.414963
-5.12231 4.79114 0.468353
-4.75718 4.78883 0.417999
-4.91016 4.78957 0.442123
-5.1 4.78923 0.455307
-5.59069 4.78103 0.436127
-4.67552 4.77776 0.41066
-5.61748 4.77721 0.413498
-5.68702 4.77617 0.416138
-4.76947 4.7725 0.415894
-4.76947 4.7725 0.415894
-5.73003 4.77209 0.406494
-4.81837 4.76621 0.427505
-5.60095 4.76781 0.430527
-5.79579 4.76828 0.381775
-5.1203 4.75435 0.465317
-4.99377 4.75254 0.451981
-5.1855 4.75211 0.481232
-5.23665 4.75218 0.475769
-4.81032 4.74997 0.415161
-5.42502 4.74418 0.445999
-5.00803 4.73925 0.452408
-4.857 4.7343 0.444641
-4.857 4.7343 0.444641
-4.72243 4.73159 0.419479
-4.72243 4.73159 0.419479
-4.74475 4.73146 0.432465
-5.21632 4.73184 0.465439
-4.5983 4.73012 0.377411
-4.61834 4.72972 0.407104
-4.61834 4.72972 0.407104
-5.24709 4.72979 0.458496
-4.84268 4.72715 0.443298
-5.85695 4.72725 0.391541
-5.85695 4.72725 0.391541
-4.88357 4.71795 0.443176
-4.88357 4.71795 0.443176
-5.69759 4.71916 0.390564
-4.7534 4.71138 0.391556
-5.10601 4.71037 0.46434
-5.18748 4.71115 0.483948
-5.23059 4.7093 0.465988
-5.5602 4.7076 0.422531
-4.37931 4.70332 0.403107
-5.1692 4.70305 0.477234
-5.84867 4.70465 0.399857
-4.81235 4.6988 0.418488
-4.87956 4.69757 0.43718
-5.39826 4.69808 0.45903
-5.13032 4.69485 0.480408
-5.15316 4.69415 0.452927
-4.92633 4.69217 0.453766
-5.62354 4.6922 0.42334
-5.62354 4.6922 0.42334
-4.82665 4.68856 0.419464
-5.84066 4.69048 0.387573
-4.61011 4.68051 0.415771
-4.91212 4.67903 0.444489
-5.50056 4.67962 0.457687
-5.50056 4.67962 0.457687
-5.13263 4.67663 0.46376
-5.13263 4.67663 0.46376
-5.61125 4.67682 0.425461
-5.61125 4.67682 0.425461
-5.64183 4.67472 0.430267
-5.85495 4.67615 0.388367
-5.26338 4.67247 0.462311
-5.26338 4.67247 0.462311
-5.48249 4.67277 0.429733
-5.48249 4.67277 0.429733
-4.89611 4.6691 0.420792
-4.98953 4.66849 0.466553
-4.65724 4.66633 0.404129
-5.7932 4.6676 0.419327
-4.60406 4.66117 0.406403
-4.93484 4.65978 0.425018
-4.93484 4.65978 0.425018
-5.51502 4.6604 0.436829
-5.86266 4.66042 0.420975
-4.92006 4.65726 0.464905
-4.6695 4.65714 0.401611
-4.6695 4.65714 0.401611
-5.2491 4.65509 0.461594
-5.75034 4.65536 0.416794
-5.18372 4.64909 0.457413
-5.20205 4.65002 0.464706
-5.61927 4.64906 0.437836
-4.95895 4.64604 0.461868
-5.01411 4.64195 0.462372
-5.16919 4.63966 0.477081
-5.74033 4.64121 0.40152
-5.83037 4.6413 0.392731
-4.6961 4.63771 0.400589
-4.7242 4.63722 0.442856
-5.23492 4.63788 0.452499
-5.13886 4.63585 0.45195
-5.52333 4.62981 0.42894
-5.60323 4.6299 0.413208
-5.60323 4.6299 0.413208
-5.68097 4.631 0.406433
-5.71356 4.62888 0.414368
-5.26535 4.62335 0.464935
-5.55391 4.61543 0.433777
-5.55391 4.61543 0.433777
-5.85495 4.61272 0.388428
-5.45357 4.60503 0.447281
-4.73221 4.60231 0.454773
-5.30422 4.60189 0.461655
-5.37947 4.6005 0.493347
-5.15945 4.5971 0.441849
-5.15945 4.5971 0.441849
-5.00008 4.58899 0.44133
-5.00008 4.58899 0.44133
-5.43933 4.58765 0.447098
-5.53533 4.58766 0.447052
-4.92256 4.58506 0.4272
-4.92256 4.58506 0.4272
-5.45759 4.58349 0.453705
-4.54071 4.57635 0.406235
-5.11055 4.57575 0.430038
-5.81408 4.57486 0.388763
-5.62754 4.56936 0.429428
-5.02464 4.56245 0.436859
-5.61496 4.56195 0.451843
-5.18547 4.55572 0.48085
-5.48991 4.55557 0.481979
-5.48991 4.55557 0.481979
-5.06352 4.55329 0.433609
-5.68271 4.55298 0.430115
-5.34885 4.54124 0.488007
-4.98377 4.53687 0.437286
-4.98377 4.53687 0.437286
-5.83266 4.53514 0.37532
-5.76921 4.53299 0.383041
-5.35311 4.525 0.473587
-5.35311 4.525 0.473587
-4.98978 4.50915 0.446198
-5.05725 4.50916 0.444885
-5.57637 4.50997 0.434769
-5.57637 4.50997 0.434769
-5.23061 4.50474 0.466278
-5.64358 4.50569 0.454102
-5.64358 4.50569 0.454102
-5.59072 4.50074 0.436462
-5.80637 4.49851 0.356232
-5.4699 4.49555 0.451736
-5.60495 4.49462 0.436523
-5.38369 4.49227 0.478271
-5.35713 4.47995 0.479767
-5.44732 4.48114 0.459076
-5.17372 4.47843 0.442505
-5.55164 4.47816 0.451126
-5.55164 4.47816 0.451126
-5.27968 4.47194 0.4664
-5.12257 4.4671 0.44809
-5.12257 4.4671 0.44809
-4.7632 4.46649 0.426956
-5.74031 4.46322 0.401276
-4.87555 4.45723 0.431168
-5.16345 4.4579 0.447876
-5.7895 4.45925 0.393005
-5.76919 4.45728 0.382828
-4.85925 4.45115 0.427231
-5.57007 4.45051 0.44577
-5.02464 4.44584 0.436844
-5.42876 4.4452 0.472473
-5.79409 4.44017 0.358597
-5.66426 4.4375 0.421082
-5.71756 4.43649 0.420395
-5.54536 4.43201 0.462402
-4.83267 4.42861 0.428528
-5.43908 4.42682 0.467773
-5.47962 4.42764 0.48703
-5.06748 4.42533 0.439072
-5.59467 4.42602 0.441864
-5.7835 4.42655 0.383957
-5.34688 4.41858 0.485458
-5.41245 4.4166 0.468307
-5.05524 4.41509 0.441788
-5.77118 4.41631 0.385757
-5.25938 4.41272 0.456299
-5.44102 4.40432 0.470001
-5.15117 4.40263 0.450073
-4.90639 4.4001 0.415588
-5.00833 4.40087 0.432816
-5.04494 4.39663 0.446686
-4.8304 4.39262 0.445541
-5.402 4.3858 0.485428
-5.64812 4.37513 0.419067
-5.22037 4.37171 0.47197
-4.77999 4.36765 0.390274
-4.75518 4.36123 0.414993
-5.6483 4.35282 0.397385
-5.48131 5.92169 0.365494
-5.1125 5.87994 0.432297
-4.89159 5.85532 0.455231
-5.5878 5.8277 0.34848
-5.00155 5.79753 0.484589
-5.45615 5.77372 0.410049
-5.45615 5.77372 0.410049
-4.89939 5.76073 0.488037
-5.45272 5.77031 0.363724
-4.96947 5.75728 0.436295
-5.44388 5.74505 0.412415
-4.93688 5.71648 0.428467
-4.87529 5.66306 0.451309
-4.96546 5.62848 0.43013
-4.89584 5.61205 0.440872
-5.12479 5.58947 0.430161
-5.00207 5.56896 0.444046
-5.30477 5.56293 0.421173
-5.14118 5.53418 0.43544
-5.57608 5.50084 0.310059
-5.28021 5.47895 0.425629
-5.43585 5.42196 0.400009
-5.60016 5.41029 0.34726
-5.14941 5.40543 0.426498
-5.53449 5.37335 0.363174
-4.28702 5.33844 0.428833
-5.18681 5.33238 0.379684
-5.3211 5.33167 0.425507
-5.61153 5.33177 0.405136
-5.35394 5.31542 0.412827
-5.28864 5.311 0.419403
-5.42357 5.31142 0.402344
-5.24362 5.29505 0.411758
-5.81667 5.28328 0.351196
-5.60411 5.27107 0.352631
-5.60411 5.27107 0.352631
-4.34381 5.2641 0.473541
-5.36195 5.26622 0.424896
-5.86583 5.23019 0.34259
-5.78749 5.20911 0.389954
-5.55021 5.17632 0.407669
-5.59538 5.17417 0.403107
-5.41926 5.16189 0.416138
-5.84864 5.15169 0.399414
-4.55679 5.13978 0.43042
-5.72619 5.1314 0.392654
-5.72619 5.1314 0.392654
-4.40923 5.10458 0.468689
-4.65522 5.09095 0.400879
-4.47097 5.0682 0.424576
-5.4393 5.06945 0.446762
-4.50788 5.06625 0.418793
-5.75062 5.06787 0.396393
-4.43794 5.05553 0.457809
-5.74201 5.02865 0.424438
-5.70904 5.00388 0.449692
-5.81256 4.95604 0.343643
-4.54827 4.94708 0.458755
-5.29141 4.91948 0.504532
-5.43445 4.91329 0.501343
-4.60132 4.87533 0.463959
-5.21838 4.875 0.469238
-5.79151 4.87146 0.396225
-4.63063 4.86375 0.404968
-4.63063 4.86375 0.404968
-5.4596 4.85861 0.456802
-5.4596 4.85861 0.456802
-4.54875 4.82686 0.418381
-5.1569 4.81145 0.479141
-5.04295 4.80787 0.443939
-4.782 4.79834 0.393417
-5.64353 4.79924 0.453461
-4.57331 4.77985 0.413895
-5.27968 4.77879 0.466324
-4.61434 4.75945 0.401291
-4.61434 4.75945 0.401291
-5.50532 4.74879 0.401749
-4.63465 4.68976 0.411133
-5.43102 4.68884 0.454987
-5.53733 4.6807 0.449951
-5.53733 4.6807 0.449951
-5.05066 4.67043 0.475555
-5.82438 4.66084 0.383774
-4.67087 4.63591 0.466522
-4.9449 4.62788 0.440552
-5.79978 4.61784 0.387772
-5.79978 4.61784 0.387772
-5.86924 4.61578 0.389389
-5.76721 4.59747 0.37999
-5.13239 4.59056 0.48439
-5.4107 4.59074 0.444702
-4.96941 4.58289 0.435455
-5.84863 4.58089 0.399231
-5.6567 4.57289 0.390701
-5.30422 4.54557 0.461624
-5.17401 4.5216 0.422623
-5.32454 4.51689 0.471878
-5.02264 4.51338 0.433884
-5.41075 4.51096 0.445282
-5.75891 4.50124 0.388153
-5.75891 4.50124 0.388153
-5.26736 4.49642 0.468094
-5.30417 4.48833 0.460892
-5.77519 4.48481 0.391953
-5.77519 4.48481 0.391953
-5.09225 4.45204 0.423126
-5.22635 4.44731 0.480728
-5.14063 4.44325 0.475632
-4.80232 4.41968 0.403473
-5.4922 4.40644 0.46489
-4.88395 4.39509 0.401047
-5.34029 4.38547 0.516342
-5.19425 4.37828 0.431686
-5.03048 5.90882 0.443573
-5.03048 5.90882 0.443573
-5.50186 5.87274 0.354843
-5.37024 5.83306 0.416763
-5.50588 5.8174 0.36113
-5.41127 5.77176 0.404266
-5.38253 5.72873 0.414642
-5.57951 5.71096 0.356659
-5.1652 5.6994 0.471283
-5.01034 5.69591 0.43576
-5.37426 5.67131 0.42305
-5.03894 5.65905 0.437775
-5.40299 5.63866 0.412567
-4.52888 5.60101 0.367676
-5.26815 5.58567 0.406906
-4.71167 5.57295 0.465302
-4.35295 5.52107 0.384033
-5.2727 5.52057 0.372375
-5.2727 5.52057 0.372375
-5.07996 5.48727 0.425186
-5.87074 5.4683 0.287842
-5.87074 5.4683 0.287842
-5.39951 5.45111 0.365524
-5.57151 5.37145 0.34465
-5.2189 5.33994 0.428314
-5.2189 5.33994 0.428314
-5.4562 5.26637 0.410782
-4.42127 5.24757 0.486557
-5.24812 5.25048 0.37674
-5.24812 5.25048 0.37674
-5.59523 5.18452 0.401016
-5.74662 5.18046 0.390289
-5.70152 5.17436 0.395615
-5.70152 5.17436 0.395615
-4.49916 5.16176 0.467758
-5.31307 5.16408 0.413239
-4.40501 5.15759 0.483139
-4.40501 5.15759 0.483139
-5.20258 5.15993 0.424118
-4.45025 5.1067 0.455902
-4.66325 5.09898 0.412994
-5.82014 5.09441 0.398666
-4.87604 5.06848 0.390457
-4.55275 5.06618 0.424194
-4.55275 5.06618 0.424194
-4.39271 5.04914 0.485138
-4.6715 5.04795 0.404602
-4.6715 5.04795 0.404602
-4.47927 5.0315 0.416885
-4.47927 5.0315 0.416885
-5.00207 4.98382 0.444138
-4.97775 4.96765 0.428146
-5.17321 4.96689 0.483292
-5.4922 4.96692 0.464783
-5.62726 4.96499 0.449692
-5.68871 4.95079 0.439285
-5.53732 4.94664 0.44989
-4.89234 4.93952 0.394318
-5.33282 4.87497 0.463699
-4.55745 4.86838 0.369156
-5.00632 4.86124 0.429703
-4.95717 4.79978 0.438141
-5.56591 4.79935 0.451721
-5.86926 4.79173 0.389618
-5.83237 4.76508 0.395737
-5.83237 4.76508 0.395737
-4.89159 4.69735 0.455322
-5.03842 4.67243 0.478317
-5.14463 4.65188 0.481522
-5.26337 4.5661 0.46225
-5.65184 4.56202 0.445557
-4.65095 4.53012 0.415039
-4.65095 4.53012 0.415039
-5.28793 4.52939 0.457733
-5.3777 4.52504 0.469467
-5.68041 4.47405 0.447205
-5.21409 4.44933 0.483185
-5.27166 4.43928 0.454132
-5.27166 4.43928 0.454132
-4.65875 4.41313 0.44754
-4.65875 4.41313 0.44754
-5.23464 4.39014 0.472565
-5.4596 4.37784 0.456818
-5.4596 4.37784 0.456818
-4.55678 4.36429 0.430344
-5.54535 4.36144 0.462341
-4.96896 5.9265 0.476791
-5.3411 5.9041 0.455414
-4.8748 5.85273 0.491928
-5.27621 5.74095 0.419601
-5.25163 5.66723 0.423859
-4.92457 5.65919 0.430252
-5.08824 5.62651 0.417038
-5.08824 5.62651 0.417038
-5.08397 5.61608 0.431335
-5.08397 5.61608 0.431335
-5.07995 5.60594 0.425125
-5.07995 5.60594 0.425125
-4.98577 5.60174 0.440216
-5.07595 5.59784 0.419144
-5.07595 5.59784 0.419144
-5.19029 5.5691 0.426224
-5.182 5.52602 0.434372
-5.26391 5.52813 0.421646
-5.19857 5.45054 0.418121
-5.13365 5.38147 0.382126
-5.26472 5.37347 0.360794
-5.41929 5.32761 0.41655
-5.16973 5.31322 0.43663
-4.38868 5.29676 0.479004
-5.46844 5.20905 0.408005
-5.61586 5.20917 0.391403
-5.37852 5.19686 0.408615
-5.75062 5.19675 0.396408
-4.34381 5.17817 0.473465
-5.53791 5.16403 0.409637
-4.57262 5.15555 0.474899
-4.57262 5.15555 0.474899
-5.30479 5.15169 0.421341
-5.79992 5.15178 0.389618
-5.79992 5.15178 0.389618
-5.64011 5.14965 0.406921
-4.5074 5.10052 0.459152
-4.5074 5.10052 0.459152
-5.55362 5.01207 0.453918
-5.55362 5.01207 0.453918
-4.44244 4.97411 0.423523
-4.56907 4.94541 0.428223
-5.37716 4.94805 0.510101
-5.27166 4.88942 0.454102
-4.47882 4.87549 0.457489
-4.68308 4.85486 0.46347
-4.9286 4.81615 0.43663
-4.9286 4.81615 0.43663
-4.81059 4.81264 0.395187
-5.17747 4.77271 0.468964
-5.38952 4.7619 0.509018
-5.30826 4.75832 0.46814
-5.30826 4.75832 0.46814
-5.61582 4.72632 0.390915
-5.61582 4.72632 0.390915
-4.65095 4.70199 0.415024
-5.08744 4.68468 0.477615
-5.02613 4.67651 0.480438
-5.25937 4.65617 0.456207
-5.25937 4.65617 0.456207
-5.49217 4.6437 0.464508
-5.03894 4.60336 0.437759
-5.19777 4.56596 0.478928
-5.54534 4.56806 0.462234
-5.63554 4.5457 0.441574
-4.9444 4.52921 0.48114
-5.15343 4.52149 0.432739
-5.78749 4.48892 0.389984
-5.40229 4.46785 0.465424
-5.20206 4.4475 0.464828
-5.20206 4.4475 0.464828
-4.90864 4.44224 0.398315
-5.31599 4.38155 0.500412
-5.75403 4.35331 0.442917
-5.05174 5.77834 0.395065
-5.23863 5.72384 0.478485
-5.46901 5.69659 0.367477
-5.33018 5.66401 0.356171
-5.11604 5.34742 0.479584
-5.68986 5.29558 0.357819
-5.28101 5.27933 0.364639
-5.56591 4.89339 0.451813
-5.4759 4.80333 0.460892
-5.4759 4.80333 0.460892
-5.65727 4.74725 0.350021
-5.68986 4.739 0.35791
-5.608 4.64104 0.357071
-5.67213 4.5251 0.455536
-5.67213 4.5251 0.455536
-4.9291 4.48515 0.396057
-4.9291 4.48515 0.396057
-5.14892 4.4843 0.467529
-5.20712 5.74968 0.389587
-5.4447 5.54948 0.351425
-5.36277 5.40208 0.364014
-4.9291 5.16448 0.395935
-5.6327 5.0828 0.354462
-5.28797 4.99575 0.458221
-5.28797 4.99575 0.458221
-5.29489 4.98641 0.551437
-5.27872 4.51195 0.549011
-4.34221 5.67858 0.243927
-4.50386 5.04996 0.412704
-4.65922 4.75938 0.406876
-5.1991 5.76213 0.377502
-5.85355 5.56575 0.344849
-5.04942 5.10486 0.577545
-5.65612 6.87953 0.285812
-5.65238 6.86979 0.259155
-5.51013 6.84899 0.346344
-5.53304 6.85044 0.319382
-5.44699 6.72536 0.334229
-5.4484 6.55683 0.377365
-5.38682 6.55351 0.400497
-5.67015 6.52309 0.307388
-5.65186 6.40654 0.300461
-5.65186 6.40654 0.300461
-5.38655 6.40177 0.420822
-5.63728 6.35507 0.31987
-5.61273 6.24446 0.324661
-5.63105 6.24031 0.331863
-5.34368 6.22174 0.418228
-5.57147 6.16436 0.344055
-5.57755 6.155 0.354111
-5.50159 6.14049 0.375183
-5.48301 6.13311 0.388565
-5.53618 6.11268 0.386108
-5.53618 6.11268 0.386108
-5.52187 6.08097 0.385086
-5.50761 6.07692 0.384567
-5.47503 6.06269 0.376724
-5.42353 6.02244 0.401855
-5.53418 6.0186 0.383194
-5.55252 6.01439 0.390732
-4.93461 5.9863 0.445633
-4.92132 7.53049 0.197952
-5.44035 7.5317 0.220413
-4.78798 7.51967 0.237167
-4.83738 7.51609 0.208069
-4.94368 7.51489 0.211288
-4.8434 7.49649 0.217087
-4.54185 7.48693 0.304337
-4.94792 7.47729 0.196671
-5.36668 7.47752 0.224716
-4.98833 7.46834 0.237335
-4.39225 7.46082 0.339691
-4.68322 7.43919 0.277603
-4.79825 7.43584 0.231812
-4.90073 7.40338 0.208145
-4.69374 7.37008 0.252045
-4.86222 7.32002 0.183472
-4.7654 7.31482 0.244339
-4.7654 7.31482 0.244339
-4.39852 7.30649 0.32872
-4.43349 7.29143 0.306488
-4.81479 7.28466 0.215149
-4.92737 7.25395 0.207382
-4.75156 7.25212 0.202515
-4.75156 7.25212 0.202515
-4.84968 7.23365 0.205994
-5.78959 7.21775 0.24823
-5.78959 7.21775 0.24823
-4.33726 7.05907 0.318619
-4.31495 7.05517 0.306046
-4.34959 7.05292 0.316971
-5.62756 7.01055 0.284424
-4.58784 6.98486 0.216476
-4.66339 6.98569 0.227234
-4.81479 6.98577 0.215134
-5.67042 6.9839 0.286804
-4.30265 6.9794 0.308105
-5.73463 6.98277 0.226395
-5.67474 6.94731 0.272888
-5.70761 6.94137 0.260284
-4.42792 6.93106 0.256851
-5.62556 6.92667 0.281418
-5.67873 6.92466 0.278915
-5.61125 6.91646 0.280289
-5.58837 6.91396 0.307785
-5.68301 6.91469 0.264435
-5.56807 6.90388 0.297852
-5.63383 6.90023 0.272919
-5.70734 6.88368 0.28093
-5.67502 6.87809 0.252441
-5.65443 6.85947 0.262772
-5.56003 6.85499 0.285172
-5.76326 6.85072 0.228638
-4.51999 6.84108 0.250977
-5.56808 6.84046 0.297867
-5.47963 6.83777 0.342758
-5.47963 6.83777 0.342758
-5.50415 6.83477 0.337631
-5.53697 6.83601 0.324448
-5.53697 6.83601 0.324448
-5.55561 6.83625 0.31192
-5.4307 6.83286 0.330444
-5.51875 6.83205 0.318497
-5.72381 6.82637 0.272995
-4.62023 6.82264 0.244797
-5.52071 6.81761 0.321075
-5.47361 6.80826 0.333405
-5.64641 6.80441 0.250504
-5.64641 6.80441 0.250504
-5.64187 6.80177 0.285492
-5.64187 6.80177 0.285492
-5.64182 6.78748 0.284897
-5.53699 6.78485 0.324661
-5.53699 6.78485 0.324661
-5.42414 6.78014 0.361938
-5.47155 6.75611 0.329636
-5.58436 6.75447 0.301682
-5.43667 6.72426 0.338974
-5.69103 6.69959 0.276764
-5.4324 6.67078 0.353439
-4.50972 6.65061 0.256409
-5.47101 6.63268 0.370499
-5.42014 6.61858 0.355988
-5.5718 6.60261 0.32431
-4.41386 6.58954 0.235886
-5.42383 6.58952 0.381775
-5.40957 6.58438 0.381393
-5.46523 6.58202 0.340454
-5.43219 6.57836 0.374542
-5.40326 6.57397 0.392242
-5.7016 6.57416 0.25116
-5.77325 6.57416 0.243713
-5.39717 6.55051 0.396255
-5.7093 6.52141 0.283371
-5.38278 6.51678 0.394043
-5.48528 6.47817 0.371094
-4.90753 6.4609 0.321991
-5.36198 6.45691 0.425201
-5.38079 6.45136 0.391113
-5.36824 6.44688 0.413788
-4.36476 6.43203 0.236374
-5.71132 6.42519 0.286621
-5.39285 6.42036 0.409866
-5.39285 6.42036 0.409866
-5.21514 6.41449 0.401749
-4.32385 6.41155 0.236618
-5.86934 6.40836 0.244171
-5.86934 6.40836 0.244171
-5.36395 6.40062 0.427948
-5.65782 6.39823 0.30896
-5.73007 6.36611 0.261276
-5.62897 6.34674 0.327835
-5.31108 6.34158 0.410324
-5.45241 6.33271 0.383575
-5.42184 6.32767 0.379013
-5.42184 6.32767 0.379013
-5.463 6.32593 0.358353
-5.463 6.32593 0.358353
-5.65756 6.32215 0.329712
-5.5984 6.3192 0.323288
-5.59384 6.29207 0.358002
-5.69273 6.29194 0.299957
-5.67012 6.28774 0.307007
-5.57355 6.27277 0.348114
-5.60015 6.26666 0.347076
-5.58609 6.26497 0.325134
-5.63496 6.25864 0.3367
-5.32332 6.2516 0.407532
-5.31107 6.24643 0.410172
-4.52378 6.23987 0.277359
-5.32937 6.23509 0.417114
-5.62069 6.23612 0.336273
-5.31909 6.21148 0.422409
-5.31909 6.21148 0.422409
-5.74809 6.21215 0.288788
-5.37225 6.19925 0.419922
-5.50383 6.19499 0.357437
-5.39681 6.19214 0.41539
-5.54045 6.1907 0.371719
-5.36622 6.17482 0.410568
-5.49337 6.17207 0.384293
-5.76063 6.17367 0.265793
-5.76063 6.17367 0.265793
-5.38454 6.16243 0.417709
-5.36825 6.16051 0.413925
-4.86599 6.15321 0.375168
-5.55903 6.15096 0.358307
-5.55903 6.15096 0.358307
-5.78294 6.15199 0.278976
-5.51375 6.13911 0.39537
-5.56948 6.13272 0.34111
-4.57861 6.13084 0.30574
-5.45672 6.11806 0.369629
-5.86903 6.11025 0.26445
-5.86903 6.11025 0.26445
-5.63496 6.10722 0.336823
-5.63496 6.10722 0.336823
-5.4504 6.10359 0.380386
-5.485 6.10443 0.391479
-5.75012 6.10368 0.292297
-5.58779 6.10091 0.348297
-5.78956 6.10128 0.247818
-5.85475 6.09798 0.263702
-4.84321 6.09035 0.403183
-5.61638 6.08855 0.350128
-5.61638 6.08855 0.350128
-5.62668 6.07945 0.345154
-5.83614 6.08141 0.27681
-5.47272 6.07375 0.393784
-5.64728 6.07446 0.334946
-5.5153 6.05391 0.416534
-5.56077 6.04931 0.381973
-4.84697 6.02142 0.429443
-5.52188 6.01962 0.385208
-5.60209 6.0129 0.349274
-5.62871 6.01288 0.348541
-5.05498 6.00752 0.462067
-5.51157 6.00827 0.389984
-5.51157 6.00827 0.389984
-4.8981 6.00514 0.423645
-5.53842 5.99941 0.368256
-5.41324 5.99676 0.406982
-4.90586 5.99342 0.455841
-5.62493 5.98772 0.32135
-5.82184 5.98729 0.275772
-4.90772 5.97871 0.480545
-5.09199 5.98005 0.443436
-5.39481 5.97226 0.41246
-5.61011 5.97181 0.361649
-4.52086 5.96033 0.355759
-4.88957 5.95667 0.452042
-5.61039 5.95571 0.341293
-5.62474 5.95571 0.342926
-5.63726 5.95705 0.319672
-5.63466 5.94729 0.356827
-4.62803 7.51801 0.2771
-4.29017 7.51522 0.330811
-4.49494 7.49732 0.295837
-4.94994 7.46187 0.199997
-4.45585 7.44572 0.319672
-4.78618 7.44639 0.213318
-4.86824 7.30554 0.192474
-5.67071 7.24213 0.266525
-5.65842 7.20935 0.268723
-4.897 7.19299 0.182114
-4.897 7.19299 0.182114
-4.87024 7.1069 0.19548
-4.87024 7.1069 0.19548
-4.91531 7.10689 0.189011
-5.57865 7.06807 0.272339
-5.57865 7.06807 0.272339
-5.44352 7.01983 0.287308
-5.44352 7.01983 0.287308
-4.95569 7.00587 0.229187
-5.62754 6.98804 0.284256
-5.06373 6.98174 0.255814
-4.49921 6.97463 0.281784
-5.72408 6.97517 0.252365
-5.01465 6.96958 0.256226
-5.76097 6.9589 0.246017
-5.74667 6.9538 0.245087
-5.48186 6.91275 0.324814
-5.48186 6.91275 0.324814
-5.04726 6.90906 0.263992
-5.66014 6.90604 0.292053
-5.58464 6.9001 0.281219
-5.53502 6.89747 0.322159
-5.53103 6.89551 0.316223
-5.59294 6.88589 0.273224
-5.72408 6.87283 0.252411
-5.50616 6.86542 0.34079
-5.71806 6.85561 0.242966
-5.71806 6.85561 0.242966
-5.4367 6.8501 0.339355
-5.59296 6.84905 0.273422
-5.70559 6.83604 0.257065
-5.76726 6.83528 0.234726
-5.78354 6.82907 0.238556
-5.79815 6.82223 0.219284
-5.58208 6.81654 0.319046
-5.70561 6.8166 0.257233
-5.66871 6.81034 0.263382
-4.5914 6.80595 0.263382
-4.5914 6.80595 0.263382
-5.73464 6.80266 0.226532
-5.75466 6.79804 0.257065
-5.55361 6.79536 0.308914
-5.55361 6.79536 0.308914
-5.57004 6.78207 0.3004
-5.3382 6.77299 0.368317
-5.3382 6.77299 0.368317
-5.57206 6.76666 0.303696
-5.52903 6.75026 0.313217
-5.72608 6.72849 0.255386
-5.45299 6.70679 0.343307
-5.24215 6.68706 0.368103
-5.28328 6.68638 0.347321
-5.44669 6.6851 0.354294
-5.59838 6.64664 0.323044
-4.43019 6.6294 0.23999
-5.47354 6.61792 0.332565
-5.69102 6.61978 0.276627
-5.70501 6.60919 0.297684
-5.467 6.60002 0.364334
-5.70104 6.58876 0.292068
-5.45241 6.58028 0.38356
-5.56779 6.58021 0.318146
-5.56779 6.58021 0.318146
-5.48101 6.57307 0.385513
-5.41355 6.56179 0.387024
-5.41355 6.56179 0.387024
-5.49987 6.53782 0.351974
-5.68443 6.52717 0.308121
-5.68443 6.52717 0.308121
-5.42386 6.52404 0.382172
-5.42386 6.52404 0.382172
-5.39687 6.51951 0.416229
-5.69275 6.51093 0.300308
-5.41155 6.50354 0.384064
-5.37252 6.4942 0.399536
-5.67672 6.49084 0.275757
-4.90555 6.48447 0.319351
-5.63756 6.48433 0.2995
-5.37678 6.47602 0.38501
-5.16424 6.43926 0.386948
-5.38653 6.43451 0.420639
-5.63755 6.43726 0.299408
-4.85421 6.42495 0.336868
-5.33337 6.4222 0.423065
-5.39884 6.37521 0.418808
-5.59009 6.37127 0.331238
-5.60037 6.35498 0.325928
-5.60037 6.35498 0.325928
-5.85074 6.35596 0.257538
-5.61267 6.34069 0.323883
-5.84073 6.34189 0.242172
-5.37452 6.3366 0.402573
-5.43414 6.33791 0.376846
-5.74208 6.33923 0.279648
-5.32537 6.33236 0.411179
-5.67014 6.33481 0.307312
-5.3971 6.31932 0.395248
-5.3971 6.31932 0.395248
-5.75608 6.32252 0.300766
-5.82815 6.31388 0.264771
-5.58409 6.30797 0.32222
-5.5798 6.29956 0.336411
-5.39281 6.29659 0.409393
-5.76867 6.29013 0.278381
-5.37853 6.27921 0.408661
-5.39709 6.27533 0.395096
-5.29678 6.26283 0.409286
-5.86303 6.24956 0.255356
-5.29705 6.23655 0.389038
-5.64726 6.23818 0.334763
-5.61064 6.2282 0.320465
-5.6375 6.22249 0.298752
-5.33538 6.21141 0.426239
-5.35569 6.20614 0.436386
-5.44415 6.20673 0.392166
-5.71303 6.20786 0.310043
-5.46671 6.2007 0.384521
-5.46671 6.2007 0.384521
-5.32737 6.19319 0.414169
-5.55705 6.19092 0.355682
-5.67584 6.18804 0.336472
-5.44414 6.18627 0.391876
-5.86674 6.18162 0.281784
-5.80555 6.17972 0.272034
-5.63296 6.17685 0.333817
-5.32709 6.17243 0.434296
-5.64327 6.16461 0.328796
-5.54048 6.16203 0.372101
-5.72749 6.15884 0.298965
-5.35995 6.14601 0.421906
-5.48732 6.14664 0.374649
-5.48732 6.14664 0.374649
-5.53446 6.14681 0.362839
-5.53446 6.14681 0.362839
-5.82185 6.14794 0.275986
-5.82185 6.14794 0.275986
-5.55447 6.13511 0.39299
-5.39055 6.1265 0.426941
-5.86074 6.12854 0.272659
-5.61009 6.12319 0.361404
-5.47703 6.11994 0.379761
-5.50988 6.12116 0.367188
-5.50988 6.12116 0.367188
-4.94766 6.11615 0.382599
-5.80755 6.1101 0.274948
-5.56522 6.10689 0.355774
-5.50353 6.10144 0.377502
-5.57381 6.10206 0.472443
-5.63297 6.09292 0.333923
-5.46673 6.08817 0.384766
-5.58782 6.08652 0.348633
-5.58782 6.08652 0.348633
-5.49989 6.08456 0.352203
-5.58151 6.07001 0.359589
-5.52845 6.06512 0.353653
-4.85123 6.05539 0.415161
-5.5735 6.04563 0.347443
-5.5735 6.04563 0.347443
-5.44588 6.03757 0.415405
-5.54274 6.0385 0.354431
-4.91038 6.02973 0.421432
-4.92687 6.02462 0.413651
-4.89384 6.0213 0.437836
-5.45614 6.00697 0.409912
-4.9572 5.99356 0.438553
-5.01811 5.98902 0.468307
-5.01811 5.98902 0.468307
-5.37396 5.99027 0.442917
-5.13486 5.98414 0.445984
-5.45017 5.98459 0.401428
-5.04896 5.98209 0.452896
-5.03868 5.96977 0.458084
-5.03868 5.96977 0.458084
-5.41528 5.96606 0.410446
-4.93688 5.96199 0.428497
-4.93688 5.96199 0.428497
-5.64097 5.96383 0.346008
-4.95492 5.95954 0.455582
-5.82356 5.96134 0.299347
-5.77037 5.96029 0.301636
-4.91015 5.95576 0.441986
-5.43586 5.95595 0.400192
-5.43586 5.95595 0.400192
-4.94265 5.9462 0.457825
-5.46154 6.86382 0.314606
-5.67067 6.85227 0.265961
-5.67067 6.85227 0.265961
-5.60553 6.80954 0.250931
-5.60553 6.80954 0.250931
-5.71159 6.76017 0.266022
-5.49415 6.74499 0.322571
-5.48139 6.71568 0.366516
-5.4733 6.64831 0.353363
-5.47728 6.59293 0.359161
-5.66613 6.57538 0.301025
-5.64985 6.54269 0.297333
-5.64985 6.54269 0.297333
-5.41529 6.4182 0.410507
-5.5878 6.38429 0.348511
-5.79357 6.37136 0.253983
-5.40727 6.34681 0.398346
-5.54275 6.3352 0.354614
-5.53846 6.2961 0.368774
-5.40298 6.24424 0.412354
-5.4936 6.22456 0.363358
-5.62125 6.20095 0.295425
-5.74377 6.19049 0.302719
-5.58776 6.17763 0.347946
-5.52617 6.16717 0.370972
-5.39477 6.14619 0.411835
-5.60411 6.14277 0.352539
-5.44813 6.1381 0.397797
-5.79695 6.13527 0.300385
-4.92033 6.05586 0.444778
-5.84614 6.04945 0.291946
-5.86304 6.02341 0.255371
-5.55506 5.94644 0.352737
-4.93563 7.51512 0.198929
-4.93563 7.51512 0.198929
-4.67719 7.50998 0.268509
-5.40975 7.47961 0.2155
-4.86598 7.40246 0.209778
-4.57911 7.2726 0.265457
-5.1237 7.2263 0.201294
-5.65443 7.18592 0.262711
-5.65443 7.18592 0.262711
-5.57694 7.00401 0.249084
-5.01665 6.97771 0.259155
-4.48892 6.97555 0.28688
-5.67902 6.89332 0.258484
-5.61783 6.87096 0.248779
-5.61783 6.87096 0.248779
-5.56035 6.83384 0.265396
-5.56035 6.83384 0.265396
-5.44467 6.61765 0.350983
-5.69875 6.55281 0.30925
-5.40729 6.52677 0.398544
-4.89285 6.49938 0.353897
-5.16624 6.42899 0.389877
-5.3497 6.4242 0.427551
-4.94566 6.31468 0.379715
-5.42811 6.31042 0.367599
-5.83845 6.27507 0.25975
-5.4567 6.24084 0.369415
-5.58395 6.24135 0.344421
-4.88407 6.18961 0.402634
-4.89635 6.10166 0.400452
-5.41528 6.10107 0.410492
-5.41531 6.03965 0.410828
-5.61641 6.0098 0.350479
-4.9893 5.98364 0.487137
-5.37421 5.97007 0.422379
-5.66673 6.78889 0.260712
-5.38309 6.60101 0.374115
-5.64984 6.58976 0.297226
-5.41929 6.53884 0.41658
-5.34966 6.51625 0.427002
-5.59666 6.46079 0.299728
-5.41584 6.44954 0.369965
-5.52617 6.29606 0.370972
-5.76437 6.26229 0.292542
-5.50987 6.23678 0.366989
-5.30906 6.1708 0.40712
-5.72349 6.17428 0.292908
-5.34968 6.03955 0.427261
-5.85505 6.00312 0.243393
-5.05872 5.97747 0.488251
-5.60952 6.68867 0.256836
-5.59324 6.57412 0.253067
-5.71442 6.26144 0.353256
-5.71442 6.26144 0.353256
-5.68985 6.14678 0.357788
-5.5918 6.62156 0.354401
-5.5918 6.62156 0.354401
-5.51817 6.41698 0.358978
-5.70615 6.1099 0.361786
-5.70615 6.1099 0.361786
-5.29597 6.0839 0.470154
-5.47841 7.44979 0.278
-5.47841 7.44979 0.278
-4.79222 7.29168 0.222595
-4.79222 7.29168 0.222595
-5.15125 7.18386 0.284439
-5.57693 7.16365 0.248978
-4.31675 7.15504 0.329559
-5.06947 6.95462 0.285141
-5.58494 6.82369 0.2612
-5.07776 6.71325 0.276917
-4.86377 6.33505 0.392853
-4.86377 6.33505 0.392853
-4.51303 6.23404 0.323166
-4.74331 7.30417 0.21106
-5.52614 6.13853 0.370529
-8.0515 7.61822 -0.193253
-8.10972 8.26567 -0.0473022
-7.94166 8.19922 -0.0452118
-7.93587 8.19423 -0.0518494
-7.9562 8.17455 -0.0406494
-8.02196 8.17367 -0.0559845
-7.79424 8.15598 -0.0270996
-7.94815 8.15333 -0.0543976
-7.96017 8.13144 -0.0345154
-8.22318 8.05249 -0.0942841
-8.20495 8.02394 -0.100769
-7.89143 8.00431 -0.0774689
-8.19901 7.95242 -0.10968
-8.072 7.90847 -0.105438
-7.98936 7.9015 -0.0643921
-8.1759 7.88225 -0.0829315
-7.97528 7.83426 -0.0742188
-8.09388 7.64462 -0.071106
-7.98084 7.64016 -0.0446625
-8.09783 7.63427 -0.0654907
-8.07563 7.61813 -0.0779114
-7.95819 7.58987 -0.0375366
-7.72555 8.33193 -0.0690613
