ply
format ascii 1.0
comment author: Caleb Adams & Jackson Parker
comment SSRL CV simple PLY writer
element vertex 1821
property float x
property float y
property float z
end_header
-0.572116 1.14509 0.885814
-0.571548 1.14569 0.893572
-0.620883 1.14578 0.89621
-0.604324 1.11029 0.886647
-0.478375 1.0665 0.944526
-0.560561 1.04182 0.935903
-0.675586 1.36957 0.852288
-0.426373 1.35323 0.844553
-0.426373 1.35323 0.844553
-0.552524 1.34775 0.845362
-0.245765 0.946271 1.02606
-0.0602664 0.84257 1.06327
-0.187363 0.809231 1.09821
-0.292781 0.957305 0.981248
0.00775908 0.833796 1.11116
-0.0732401 0.800933 1.11494
-0.26246 0.752426 1.11747
-0.097645 0.739673 1.21183
-0.0486231 0.707058 1.1301
-0.0247637 0.875193 1.12672
-0.147709 1.36602 0.854791
-0.00804826 1.37229 0.852703
-0.0791938 1.32053 0.884579
-0.170081 1.26847 0.894983
-0.0603032 1.08819 0.986892
-0.234871 1.25485 0.885885
-0.237045 1.25559 0.849751
-0.250965 1.18126 0.886963
-0.196501 1.12377 0.948229
-0.000390991 1.09179 0.936766
2.99735e-06 1.09378 0.941573
-0.156211 1.06354 1.03356
-0.216456 1.04738 0.978113
-0.216456 1.04738 0.978113
-0.0168954 1.24373 0.955265
-1.04565 1.56686 0.750817
-1.19287 1.53346 0.748631
-1.33338 1.70868 0.655573
-1.11038 1.55546 0.746169
-1.30637 1.43574 0.738851
-1.18791 1.67022 0.705833
-1.15244 2.05807 0.659905
-1.32985 2.05787 0.714847
-1.06158 2.0171 0.652972
-1.23401 2.01978 0.66444
-1.02348 1.7849 0.705948
-1.15247 1.77986 0.660842
-1.19062 2.02234 0.703579
-1.19062 2.02234 0.703579
-1.24767 1.75216 0.70362
-1.31369 1.7549 0.713596
-1.24493 1.74671 0.703841
-1.04042 1.89476 0.563062
-0.946585 1.69343 0.756051
-0.749292 1.65375 0.744672
-0.848067 1.58826 0.744245
-0.987355 1.53391 0.754991
-1.0039 1.60726 0.763397
-1.00478 1.60786 0.75018
-0.841065 1.98456 0.670427
-0.87441 1.86165 0.714842
-0.840151 1.91305 0.752303
-0.709042 1.894 0.751085
-0.709042 1.894 0.751085
-0.744262 1.84768 0.703964
-0.921767 1.75461 0.757714
-0.940915 1.94043 0.705879
-0.875257 1.80401 0.704702
-0.782136 1.77106 0.753266
-1.06689 1.46242 0.808666
-0.701957 1.62376 0.785489
-0.799993 1.52566 0.766731
-0.743504 1.51156 0.796353
-0.866992 1.49254 0.794109
-0.708837 1.45141 0.835971
-0.998686 1.45706 0.80292
-0.792835 1.59125 0.812549
-0.755004 1.40778 0.84509
-1.01519 1.39703 0.79316
-1.29172 2.07448 0.654676
-1.29122 2.07073 0.664475
-1.20992 2.3092 0.655113
-1.26691 2.24366 0.658089
-1.05881 2.21945 0.606682
-1.10329 2.18126 0.640965
-1.10329 2.18126 0.640965
-1.2668 2.12904 0.656097
-1.17704 2.1099 0.664224
-1.20982 2.07721 0.65682
-1.25073 2.07447 0.654722
-1.16334 2.37773 0.605425
-1.22598 2.1891 0.654846
-1.0535 2.08255 0.663773
-1.34077 2.31463 0.657214
-1.12192 2.25523 0.552435
-1.11078 2.11123 0.64776
-1.34854 2.7466 0.575184
-1.34676 2.44325 0.606441
-1.02151 2.7029 0.560767
-1.34679 2.65349 0.603715
-1.10295 2.63122 0.581896
-1.0459 2.61553 0.572963
-1.02888 2.5168 0.560435
-1.1192 2.45542 0.560718
-1.20962 2.43496 0.617373
-1.21237 2.42953 0.614655
-1.21237 2.42953 0.614655
-1.30816 2.44566 0.660744
-0.933089 2.37762 0.613769
-0.973034 2.35349 0.534937
-0.743164 2.27123 0.581703
-0.743465 2.25909 0.620372
-0.988149 2.23828 0.664937
-0.939838 2.214 0.647161
-0.782312 2.37744 0.652579
-0.725405 2.32013 0.656366
-0.751446 2.27884 0.681126
-0.7934 2.26574 0.61455
-0.702449 2.24624 0.684959
-0.913932 2.24632 0.662246
-0.864965 2.13165 0.65457
-0.681441 2.07421 0.705147
-0.679361 2.40222 0.615322
-0.677948 2.40211 0.589115
-0.859946 2.26577 0.611437
-0.798446 2.21912 0.653378
-0.76713 2.07849 0.669491
-0.99788 2.54201 0.544629
-0.886352 2.41046 0.613651
-0.908256 2.52237 0.611305
-0.83305 2.49223 0.649975
-0.946857 2.58219 0.568371
-0.949213 2.5797 0.608668
-0.932052 2.46019 0.531534
-0.755555 2.71381 0.560808
-0.629444 2.04168 0.705118
-0.546999 1.99245 0.696256
-0.334081 1.94071 0.700736
-0.544831 1.74641 0.753209
-0.514893 2.05796 0.692402
-0.399168 2.00045 0.704875
-0.615588 1.90746 0.744336
-0.449543 1.89451 0.693517
-0.503316 1.89643 0.759527
-0.402234 1.87475 0.755307
-0.648312 1.86657 0.750498
-0.549913 1.85287 0.743806
-0.449543 1.83303 0.693046
-0.579874 2.04972 0.703714
-0.351021 2.02506 0.703687
-0.351021 2.02506 0.703687
-0.377521 1.94298 0.752918
-0.554886 1.92699 0.699392
-0.536148 2.00893 0.650807
-2.33366e-06 1.70555 0.757883
-0.0412773 2.03556 0.750173
-0.147634 2.00864 0.749793
-0.317136 1.89665 0.750554
-0.331002 1.89385 0.751391
-0.0741239 1.88579 0.743735
-0.0245966 1.87749 0.739493
-0.295559 1.79561 0.741582
-0.0902301 1.79565 0.740514
-0.0248159 1.73041 0.751178
-0.18042 1.77373 0.760701
-0.407362 1.58531 0.797453
-0.571365 1.58293 0.789458
-0.448248 1.57437 0.792875
-0.404587 1.57987 0.797646
-0.514254 1.54216 0.804646
-0.41023 1.41868 0.846759
-0.487094 1.4269 0.841045
-0.343963 1.48892 0.783597
-0.558368 1.99716 0.795386
-0.552773 1.99456 0.797256
-0.57714 2.27097 0.651659
-0.35981 2.20515 0.697241
-0.481894 2.18947 0.702929
-0.481424 2.18923 0.709633
-0.497706 2.15322 0.708062
-0.377438 2.38574 0.651103
-0.416686 2.2456 0.684751
-0.481586 2.24076 0.709003
-0.555134 2.15607 0.703476
-0.334464 2.13606 0.631433
-0.569495 2.36929 0.651865
-0.427185 2.35562 0.651662
-0.514452 2.32816 0.700583
-0.615173 2.21366 0.649197
-0.334268 2.68062 0.618547
-0.369643 2.67557 0.562211
-0.498553 2.59876 0.619181
-0.612164 2.59044 0.600635
-0.653094 2.49238 0.604405
-0.380327 2.69134 0.653396
-0.421465 2.66428 0.60308
-0.421465 2.66428 0.60308
-0.366622 2.61247 0.612699
-0.661579 2.57764 0.717974
-0.404976 2.57666 0.663476
-0.571964 2.56194 0.615682
-0.637655 2.53054 0.609572
-0.571951 2.49772 0.614076
-0.572102 2.50043 0.611195
-0.400723 2.72579 0.581816
-0.401901 2.72746 0.560266
-0.637613 2.63982 0.610378
-0.350501 2.45684 0.611168
-0.528718 2.44287 0.650488
-0.49277 2.67017 0.565121
-0.18039 2.38546 0.665031
-0.238 2.36921 0.654168
-0.236891 2.36909 0.674231
-0.167271 2.25702 0.710421
-0.0851484 2.24346 0.704169
-0.164416 2.32817 0.661675
-0.0356427 2.31712 0.70395
-0.333281 2.26253 0.709904
-0.0159823 2.2219 0.643189
-0.155533 2.15996 0.765801
-0.158737 2.15879 0.711083
-0.106308 2.1095 0.741896
-0.106308 2.1095 0.741896
-0.112118 2.09886 0.690422
-0.164208 2.49989 0.623728
-0.262756 2.4594 0.649745
-0.278856 2.41033 0.652795
-0.180965 2.69472 0.551745
-0.192026 2.63972 0.611634
-0.30321 2.63166 0.578163
-0.218875 2.58228 0.601975
-0.2775 2.57797 0.628625
-0.202732 2.52526 0.600534
-0.202732 2.52526 0.600534
-0.264932 2.71104 0.560258
-0.146647 2.56572 0.63094
-0.148297 2.56576 0.660451
-0.104254 2.42935 0.64938
-0.530855 2.09315 1.07174
-0.486982 2.44643 0.982772
-2.4219 2.89905 0.625701
-2.60516 3.01366 0.624069
-2.7387 2.95593 0.681274
-2.51684 2.93111 0.594593
-2.65494 2.9098 0.711229
-2.43534 2.83386 0.573906
-2.61049 2.76214 0.675117
-2.46796 3.30706 0.603065
-2.67141 3.24213 0.615139
-2.55595 3.12158 0.632989
-2.56756 3.36894 0.573625
-2.41812 3.2203 0.554153
-2.41812 3.2203 0.554153
-2.54276 3.21878 0.573379
-2.65562 3.20115 0.60946
-2.58039 3.16652 0.625956
-2.73679 3.11194 0.620949
-2.45974 3.12341 0.594645
-2.63344 3.30331 0.588058
-2.68241 3.15601 0.57709
-2.68241 3.15601 0.57709
-2.38538 3.06909 0.544593
-2.23552 3.03007 0.619954
-2.13332 3.02102 0.571482
-2.20694 2.99682 0.562074
-2.32786 2.97397 0.647804
-2.07965 3.06555 0.620577
-2.08441 3.06226 0.54504
-2.23027 2.97123 0.661417
-2.23328 2.97257 0.612974
-2.15149 2.95387 0.612495
-2.08551 2.92362 0.622194
-2.23011 2.89063 0.663502
-2.13173 2.86597 0.670814
-2.18112 2.85226 0.670736
-2.07546 2.7872 0.645149
-2.28203 2.74857 0.673949
-2.17568 3.01364 0.623153
-2.28 2.86562 0.566433
-2.20532 2.85777 0.664661
-2.06723 2.83639 0.638524
-2.38627 3.00866 0.563311
-2.10756 2.75779 0.573213
-2.10738 2.7579 0.754974
-2.13332 3.34467 0.574811
-2.17281 3.26781 0.576539
-2.27965 3.25963 0.574624
-2.33645 3.2118 0.557306
-2.32992 3.36619 0.575848
-2.32855 3.36762 0.549842
-2.21392 3.25981 0.570439
-2.26284 3.20892 0.561085
-2.26265 3.21317 0.564119
-2.37828 3.30886 0.576878
-2.14938 3.18879 0.572679
-2.14077 3.2543 0.573409
-2.41133 3.6976 0.493928
-2.53203 3.69147 0.534848
-2.47498 3.76793 0.535647
-2.71316 3.73812 0.529993
-2.46785 3.69315 0.514381
-2.53223 3.56407 0.538481
-2.54067 3.46592 0.535282
-2.4031 4.05453 0.410704
-2.59789 4.1204 0.538405
-2.59771 4.12008 0.535302
-2.47515 3.94871 0.538753
-2.54096 3.85052 0.542328
-2.54012 3.84718 0.527838
-2.67947 4.07702 0.625779
-2.27146 3.76731 0.584919
-2.2225 3.75945 0.575011
-2.38663 3.73014 0.488324
-2.38573 3.73566 0.552996
-2.22253 3.71826 0.575241
-2.3535 3.62184 0.568115
-2.38521 3.5058 0.65631
-2.15688 3.77574 0.574738
-2.13165 3.72385 0.579931
-2.27756 3.71571 0.534134
-2.29592 3.62885 0.580729
-2.15686 3.51368 0.572663
-2.20641 3.47273 0.572683
-2.30518 3.54644 0.574439
-2.30406 3.54768 0.554403
-2.31247 3.88069 0.578577
-2.18205 3.85571 0.469555
-2.07207 4.03549 0.533722
-2.19781 3.90125 0.57382
-2.37666 3.89039 0.654791
-2.37847 3.8856 0.499826
-2.19289 4.09016 0.530524
-2.3896 3.98906 0.534975
-2.19288 3.96723 0.532296
-2.19007 3.96988 0.480446
-1.73192 3.07095 0.61959
-1.73182 3.0697 0.62304
-1.98498 3.05505 0.572441
-1.71581 2.99191 0.620791
-2.05061 2.95126 0.571608
-1.94444 2.93049 0.645811
-1.94444 2.93049 0.645811
-1.85548 2.90176 0.616892
-2.03422 2.88118 0.651978
-1.91583 2.83047 0.614194
-1.92334 2.7732 0.658959
-2.03078 3.01373 0.610673
-1.75646 2.92644 0.625548
-1.75672 2.92633 0.620267
-2.04956 2.88239 0.66433
-1.80615 2.87451 0.616484
-1.72919 3.07404 0.569486
-1.72919 3.07404 0.569486
-1.78242 3.2177 0.510842
-1.78133 3.17689 0.529729
-1.95328 3.17683 0.546788
-1.95328 3.17683 0.546788
-1.8965 3.11157 0.523636
-1.75722 3.10726 0.517849
-1.98495 3.34169 0.568419
-2.04941 3.2268 0.571325
-1.79752 3.11874 0.634568
-1.81488 3.12022 0.445379
-1.87978 3.26689 0.534169
-2.02588 3.12335 0.567691
-1.54595 3.07419 0.565385
-1.61713 2.96452 0.61663
-1.55212 2.85264 0.604373
-1.67494 3.02734 0.619023
-1.56819 2.91553 0.604807
-1.4281 2.90491 0.565383
-1.58444 2.78225 0.613803
-1.46171 3.1647 0.513326
-1.51364 3.1202 0.568905
-1.69418 3.18882 0.569887
-1.69704 3.18331 0.569927
-1.63682 3.16153 0.573681
-1.60692 3.09608 0.563502
-2.03389 3.44934 0.581201
-2.00368 3.83338 0.533978
-2.0096 4.10428 0.482303
-2.0096 4.10428 0.482303
-1.90217 4.04702 0.477905
-1.80063 3.95957 0.476861
-1.98756 3.95915 0.528992
-1.98756 3.95915 0.528992
-1.85594 3.87451 0.517231
-2.05068 3.84402 0.572017
-1.96841 3.90133 0.575831
-1.9432 3.78398 0.569302
-1.53564 3.59737 0.513686
-1.52306 4.02326 0.3844
-1.4484 4.11637 0.375957
-1.60706 4.09172 0.374257
-1.48751 4.09506 0.418363
-1.54513 4.09499 0.410986
-1.60431 4.0808 0.375431
-1.36662 3.95518 0.372031
-1.48747 3.93332 0.376589
-1.38051 3.99339 0.382913
-1.38051 3.99339 0.382913
-1.57439 4.07435 0.470349
-1.4138 4.00744 0.441263
-1.67569 4.09924 0.437164
-1.48699 4.0967 0.425675
-1.54416 4.0938 0.42458
-1.48133 4.03371 0.430365
-1.43714 3.96823 0.436097
-1.38924 4.10159 0.443204
-1.40445 3.89184 0.424565
-1.50247 3.73051 0.877004
-2.64846 4.42718 0.423975
-2.43324 4.15566 0.53303
-2.58365 4.22616 0.57877
-2.45188 4.40088 0.582362
-2.43647 4.74861 0.484415
-2.43388 4.66738 0.43246
-2.72188 4.66728 0.436649
-2.72213 4.6645 0.432885
-2.5004 4.6427 0.433132
-2.64007 4.57715 0.440245
-2.64359 4.65634 0.677762
-2.39425 4.43253 0.45805
-2.07514 4.66788 0.391435
-2.07593 4.66489 0.380538
-2.56549 5.08182 0.485801
-2.59231 4.92073 0.485334
-2.56009 5.08186 0.483639
-2.58436 5.38782 0.474119
-2.73796 5.32668 0.527884
-2.72168 5.16008 0.442041
-2.55622 5.47453 0.524949
-2.55809 5.47449 0.497898
-2.5836 5.43409 0.484924
-2.6281 5.2239 0.486868
-2.5985 5.15887 0.524527
-2.48095 5.33583 0.484487
-2.66158 5.4068 0.488051
-2.66158 5.4068 0.488051
-2.05907 4.91922 0.389323
-2.28916 4.87016 0.373589
-2.28868 4.87574 0.365681
-2.13326 4.84827 0.374004
-2.08705 4.82964 0.339366
-2.28971 5.36441 0.383631
-2.26392 5.35168 0.475175
-1.73582 4.37591 0.385817
-1.86445 4.32332 0.423931
-1.78178 4.33431 0.422745
-1.89179 4.58864 0.388997
-1.81415 4.69955 0.392167
-2.0125 4.65765 0.334333
-1.96875 4.63529 0.368668
-1.8226 4.73212 0.412211
-1.81602 4.70023 0.425932
-1.79844 4.5909 0.437008
-1.79814 4.59279 0.433607
-1.43169 4.15717 0.383393
-1.41496 4.40817 0.222261
-1.65999 4.3817 0.335318
-1.45117 4.26383 0.374228
-1.52574 4.15991 0.383664
-1.39691 4.40242 0.424349
-1.57713 4.20792 0.438589
-1.38064 4.30636 0.440531
-1.54684 4.24687 0.425989
-1.52209 4.34733 0.478015
-1.37435 4.17277 0.463535
-1.62689 4.71347 0.410256
-1.37986 4.77563 0.515953
-1.68381 4.65923 0.427456
-1.60669 4.63952 0.475238
-1.5335 4.5878 0.471545
-1.45617 4.78445 0.461739
-1.9368 4.87536 0.413939
-1.86544 4.98814 0.335709
-2.00791 4.97999 0.333824
-1.9091 4.94714 0.33645
-1.87255 4.89485 0.341296
-1.79909 4.91105 0.331736
-1.82946 5.02592 0.372575
-1.82946 5.02592 0.372575
-1.99346 4.88355 0.384201
-1.91389 5.4745 0.335399
-1.98906 5.45253 0.336142
-2.04019 5.38146 0.339027
-1.67553 4.85499 0.414604
-1.69216 5.10983 0.333986
-1.69216 5.10983 0.333986
-1.48444 5.12966 0.373643
-1.58279 5.0149 0.382518
-1.69777 4.88922 0.383129
-1.43942 5.03834 0.470824
-1.39295 4.94031 0.669227
-1.4015 5.02345 0.56618
-1.63752 5.3235 0.379745
-1.42918 5.38577 0.422233
-1.41801 5.18038 0.468004
-1.50398 5.34591 0.442341
-1.30787 3.03319 0.572526
-1.27406 2.79464 0.545296
-1.27406 2.79464 0.545296
-1.25848 3.01331 0.480494
-1.02151 2.89942 0.564065
-1.36362 2.85186 0.618963
-1.16003 3.01278 0.437348
-1.13837 2.81204 0.563139
-1.28056 2.89938 0.572468
-1.08376 3.2356 0.523369
-1.10549 3.35243 0.575075
-0.678852 2.98701 0.519389
-0.866196 2.90232 0.537356
-0.960802 3.08551 0.512707
-1.00785 2.95149 0.524372
-0.956426 2.93983 0.443072
-0.706045 2.77108 0.564055
-1.01058 3.05265 0.522188
-0.718811 3.0364 0.639038
-0.941582 3.05759 0.562475
-0.695635 3.19195 0.514702
-0.703656 3.41314 0.520743
-0.703656 3.41314 0.520743
-0.939776 3.40134 0.498147
-0.803983 3.3472 0.562127
-1.33303 3.71018 0.393443
-1.21788 3.7195 0.472403
-1.11906 3.63741 0.474808
-1.33123 3.71156 0.423331
-1.15334 3.6211 0.471471
-1.08672 3.53664 0.470769
-1.18569 3.44082 0.470271
-1.295 3.76304 0.470522
-1.04596 3.61437 0.47394
-1.19428 3.52269 0.476086
-1.31987 4.00154 0.37595
-1.32473 4.00197 0.297015
-1.26467 4.03943 0.423651
-0.809724 3.75707 0.513471
-0.933754 3.74909 0.520623
-0.971926 3.75205 0.473562
-0.727855 3.70245 0.513212
-0.742238 3.75958 0.565113
-0.906325 3.67571 0.470157
-0.890143 3.58811 0.474021
-0.963286 3.49539 0.473164
-0.757919 3.45949 0.524222
-0.757919 3.45949 0.524222
-0.830249 3.51446 0.470882
-0.825155 3.51193 0.557472
-0.700813 3.48999 0.471574
-0.931038 3.98131 0.472659
-0.931979 3.97936 0.457282
-0.7087 3.80873 0.558693
-0.810291 3.80619 0.519999
-0.351654 3.01702 0.492179
-0.596872 3.07199 0.508485
-0.637293 2.97862 0.52335
-0.667813 2.92946 0.559622
-0.667813 2.92946 0.559622
-0.668528 2.79291 0.572379
-0.539244 3.08267 0.524071
-0.662677 2.85326 0.52111
-0.3603 2.88956 0.57076
-0.360982 2.88856 0.557185
-0.35031 2.98131 0.563889
-0.419347 3.38267 0.563754
-0.668526 3.12628 0.521686
-0.651647 3.42955 0.518596
-0.581008 3.1455 0.51315
-0.629134 3.11281 0.510113
-0.604973 3.29576 0.518728
-0.572075 3.2248 0.504607
-0.317516 3.03366 0.509505
-0.277282 2.97568 0.543471
-0.0275843 2.96814 0.505704
-0.282236 2.83392 0.563762
-0.0989295 3.07409 0.559723
-0.0976629 3.07371 0.539473
-0.147966 3.04754 0.468999
-0.197079 3.02497 0.572286
-0.195762 2.95097 0.527497
-0.243649 2.80365 0.603539
-0.28106 2.78228 0.558761
-0.282255 3.05236 0.55979
-0.0819802 3.01649 0.555719
-0.284665 2.93532 0.51709
-0.203975 2.88564 0.541419
-0.203975 2.88564 0.541419
-0.0246139 2.84213 0.563417
-0.109594 2.76234 0.651718
-0.0682127 3.42888 0.612828
-0.049328 3.23321 0.56358
-0.0654363 3.19722 0.559005
-0.0872683 3.37673 0.612808
-0.224587 3.33625 0.569202
-0.17286 3.30596 0.559285
-0.0990107 3.2705 0.562487
-0.0983314 3.26984 0.574485
1.9874e-05 3.18332 0.578965
-0.142224 3.23772 0.597253
-0.238612 3.12608 0.559366
-0.128445 3.09873 0.563469
-0.311345 3.38188 0.528673
-0.311345 3.38188 0.528673
-0.245111 3.217 0.546078
-0.245111 3.217 0.546078
-0.522184 3.71582 0.589122
-0.572304 3.65898 0.607584
-0.661647 3.65523 0.503577
-0.335251 3.62596 0.59965
-0.563663 3.54058 0.515552
-0.563663 3.54058 0.515552
-0.344108 3.44295 0.495729
-0.596823 3.44337 0.509362
-0.602041 3.75694 0.552345
-0.474361 3.74078 0.593593
-0.481697 3.6663 0.60789
-0.482565 3.66708 0.594212
-0.408783 3.63454 0.53291
-0.366574 3.75903 0.609445
-0.615822 3.72394 0.559278
-0.654318 3.56874 0.519751
-0.654318 3.56874 0.519751
-0.399464 3.5079 0.601521
-0.490268 4.11711 0.611864
-0.490268 4.11711 0.611864
-0.359449 4.10915 0.590634
-0.375593 4.08098 0.514781
-0.378291 4.07897 0.559909
-0.400944 4.05165 0.599991
-0.588376 4.02756 0.603455
-0.588376 4.02756 0.603455
-0.391401 3.89816 0.610125
-0.407495 3.80531 0.610806
-0.667843 4.08705 0.561671
-0.547146 3.96111 0.613851
-0.676532 3.8578 0.562027
-0.457092 3.83805 0.611854
-0.457092 3.83805 0.611854
-0.570948 3.82133 0.674263
-0.566681 3.82189 0.600548
-0.630058 3.79901 0.493835
-0.473178 4.00208 0.609882
-0.346555 3.80205 0.562443
0.00774389 3.45843 0.547631
-0.112077 3.76169 0.612922
-0.212257 3.7523 0.641046
-0.0463885 3.69349 0.609877
-0.00293741 3.64164 0.608929
-0.295498 3.63444 0.565359
-0.158677 3.6717 0.609871
-0.0464343 3.60069 0.607488
-0.0711627 3.48606 0.613378
-0.302738 3.97008 0.569436
-0.155517 3.91253 0.584296
-0.156402 3.91233 0.567293
-0.279489 4.07603 0.562172
0.00883484 3.93751 0.553044
-0.0332492 3.89581 0.559619
-0.0332492 3.89581 0.559619
-0.218892 4.08398 0.600267
-0.115041 3.8469 0.560458
-0.115041 3.8469 0.560458
-0.0171171 3.84408 0.560178
-0.0171171 3.84408 0.560178
-0.229974 3.83048 0.563759
-0.033297 4.03529 0.557444
-0.224492 3.96875 0.653022
-0.147323 4.03521 0.557235
-0.147323 4.03521 0.557235
-0.000671973 3.80586 0.569039
-0.000671973 3.80586 0.569039
-0.396728 3.62622 0.798472
-0.041083 3.74548 0.939818
-1.31474 4.37003 0.41184
-1.29976 4.32828 0.474493
-1.20734 4.40972 0.521954
-1.05388 4.31333 0.566599
-1.12753 4.29799 0.469293
-1.26745 4.28463 0.475739
-1.34145 4.35302 0.471438
-1.12859 4.76399 0.56401
-1.04469 4.63255 0.560645
-1.04768 4.62958 0.613282
-1.22654 4.54054 0.476526
-1.25912 4.67959 0.559506
-1.18254 4.56533 0.520677
-1.03766 4.75053 0.560242
-1.11352 4.65495 0.564022
-1.0699 4.56754 0.56408
-1.07044 4.56808 0.557286
-1.27556 4.46777 0.461974
-1.29729 4.52658 0.566986
-0.742988 4.42362 0.576927
-0.685128 4.28082 0.563889
-0.841808 4.43711 0.550743
-0.784297 4.30938 0.622925
-0.784297 4.30938 0.622925
-0.979991 4.30608 0.480669
-0.979991 4.30608 0.480669
-0.725474 4.16616 0.569249
-0.865092 4.38181 0.57374
-0.955949 4.79328 0.546928
-0.923252 4.53009 0.574347
-1.00541 4.79423 0.563081
-0.944076 4.70386 0.554799
-0.939305 4.70718 0.469147
-0.889294 4.66862 0.562979
-1.00228 4.6626 0.611354
-0.739444 4.52669 0.560943
-1.04614 5.14498 0.566945
-1.02166 5.10035 0.561091
-1.02166 5.10035 0.561091
-1.0955 4.96655 0.454099
-1.05442 4.90044 0.550794
-1.20895 4.86164 0.555908
-1.06237 4.85415 0.563658
-1.25035 5.13307 0.457474
-1.18487 5.08387 0.460795
-1.18581 5.081 0.468273
-1.34046 5.03983 0.491282
-1.3397 5.04305 0.440678
-1.28916 4.82743 0.524504
-1.0596 5.07338 0.511028
-1.05376 4.9907 0.564756
-1.25882 5.09561 0.473013
-1.14391 4.93183 0.472362
-1.17733 5.25421 0.582213
-1.36347 5.36119 0.424706
-1.09423 5.32795 0.473351
-1.19951 5.45116 0.433737
-1.19951 5.45116 0.433737
-1.17694 5.34639 0.472952
-1.27557 5.24308 0.465057
-0.935941 5.10603 0.512772
-0.765724 4.98534 0.563165
-0.677648 5.11946 0.58116
-0.981309 5.11232 0.552057
-0.725719 4.94153 0.573044
-0.728537 4.94088 0.525441
-0.722549 4.93597 0.574123
-0.71868 4.93116 0.637797
-0.841174 4.91914 0.568566
-0.90541 4.91711 0.564881
-0.692615 5.02629 0.558307
-0.892401 5.00508 0.510008
-0.817589 4.97339 0.541181
-0.957971 4.97513 0.51302
-0.955706 4.97771 0.473162
-0.776569 4.89173 0.527649
-0.841264 4.84348 0.564547
-0.922716 4.83784 0.564559
-0.923053 4.83715 0.570479
-1.00505 5.45068 0.469738
-0.719828 5.24519 0.524269
-0.719028 5.2473 0.509194
-0.727914 5.47467 0.512438
-0.843622 5.28569 0.560162
-0.556166 4.37908 0.608327
-0.432471 4.32986 0.610134
-0.626041 4.32731 0.560766
-0.359006 4.29678 0.608883
-0.657085 4.3002 0.564207
-0.657085 4.3002 0.564207
-0.375762 4.2398 0.605769
-0.503383 4.40119 0.560908
-0.498384 4.3022 0.620978
-0.59677 4.12474 0.60822
-0.440338 4.25603 0.600195
-0.441875 4.25676 0.574123
-0.458054 4.18267 0.59518
-0.574999 4.7532 0.562491
-0.612029 4.49314 0.598053
-0.335601 4.806 0.491922
-0.654338 4.75656 0.517424
-0.654224 4.50707 0.614975
-0.441135 4.50123 0.618876
-0.419191 4.74783 0.561934
-0.344798 4.67407 0.561076
-0.574833 4.67297 0.562876
-0.283928 4.26064 0.366513
-0.283928 4.26064 0.366513
-0.139479 4.34661 0.545722
-0.139479 4.34661 0.545722
-0.114666 4.22366 0.569111
-0.114718 4.22381 0.558735
-0.125279 4.16572 0.61215
-0.090385 4.1581 0.561342
-0.15562 4.15002 0.58124
-0.017159 4.1418 0.559344
-0.0167193 4.14195 0.569225
-0.0569111 4.13303 0.54534
-0.161481 4.42788 0.607656
-0.259343 4.41918 0.609839
-0.177942 4.37879 0.599845
-0.293839 4.37095 0.593584
-0.227018 4.33757 0.611395
-0.229315 4.33827 0.572888
-0.156391 4.24001 0.566867
-0.309981 4.24342 0.633723
-0.309981 4.24342 0.633723
-0.213841 4.15537 0.559095
-0.16976 4.50936 0.621519
-0.0578329 4.49805 0.563159
-0.331086 4.80505 0.569533
-0.0792928 4.66629 0.520951
-0.244849 4.60865 0.540154
-0.224593 4.52378 0.571958
-0.122553 4.47757 0.55895
-0.566358 5.08371 0.557852
-0.437953 4.92524 0.56064
-0.384757 4.86156 0.623297
-0.676518 5.11912 0.560835
-0.415613 4.9983 0.62405
-0.345249 4.96651 0.553614
-0.360982 5.1082 0.561676
-0.360982 5.1082 0.561676
-0.378304 5.05905 0.561866
-0.376059 5.05847 0.600591
-0.473971 5.02574 0.601025
-0.473971 5.02574 0.601025
-0.670794 4.91919 0.61418
-0.670794 4.91919 0.61418
-0.427958 4.93598 0.561578
-0.400513 5.46483 0.503153
-0.539087 5.38906 0.600995
-0.539745 5.39106 0.514851
-0.45868 5.28098 0.4859
-0.504031 5.49294 0.571781
-0.605362 5.48945 0.512085
-0.449759 5.4443 0.493863
-0.449416 5.44336 0.525058
-0.465163 5.36609 0.51721
-0.5882 5.17999 0.508948
-0.484091 5.17374 0.567704
-0.588227 5.47476 0.508369
-0.34486 5.46584 0.561131
-0.663683 5.46399 0.509224
-0.67073 5.36677 0.512392
-0.358642 5.29437 0.521262
-0.0914065 5.08323 0.551896
-0.089167 4.98545 0.542154
-0.117953 5.143 0.609309
-0.139185 5.09991 0.567801
-0.0958909 5.03376 0.614672
-0.301698 4.98521 0.534153
-0.196288 4.85807 0.584427
-0.228539 5.09161 0.536498
-0.106985 4.9187 0.653588
-0.0764978 4.83194 0.600404
-0.262812 4.9088 0.569121
-0.0655407 5.13353 0.558391
-0.328187 4.91202 0.747757
-0.0158215 5.19019 0.560709
-0.130816 5.4926 0.557868
-0.131175 5.49318 0.563798
-0.00276113 5.41103 0.579938
-0.115095 5.41129 0.559424
-0.0816346 5.29925 0.561877
-0.18091 5.2773 0.573738
-0.0654948 5.24754 0.559049
-0.276638 5.46649 0.511414
-0.197701 5.46043 0.556868
-0.00847642 5.25569 0.558415
-0.171695 5.21444 0.542999
-0.0493836 5.34574 0.560139
-0.342716 5.45803 1.28229
-5.41967 5.72157 0.344518
-5.33906 5.5523 0.323819
-5.17455 5.51831 0.403449
-5.18572 5.75702 0.434898
-5.44896 5.54397 0.43839
-5.41122 6.10626 0.343802
-4.9945 5.80306 0.38851
-5.13353 5.5265 0.4047
-5.13353 5.5265 0.4047
-4.93529 5.72234 0.570387
-5.00984 5.5398 0.474993
-5.06542 5.77574 0.573247
-4.9616 5.93419 0.372217
-4.8619 5.84656 0.476469
-5.39199 6.23833 0.395412
-5.4294 6.30218 0.326266
-5.39356 6.24416 0.430922
-5.43698 6.81827 0.339974
-4.94539 6.31075 0.370302
-5.05369 6.72856 0.293107
-4.35479 5.69314 0.320762
-4.34813 5.52446 0.434361
-4.11867 6.15473 0.32375
-4.25172 5.87152 0.298281
-4.15209 6.60565 0.316739
-4.40012 6.55322 0.213824
-4.18401 6.7079 0.408827
-4.18401 6.7079 0.408827
-5.32446 7.83663 0.180749
-5.17551 7.89235 0.268982
-5.29133 7.8448 0.190569
-5.44617 7.99604 0.250683
-5.40486 7.94936 0.268384
-4.58047 6.97535 0.220383
-4.77724 7.28438 0.243586
-4.77724 7.28438 0.243586
-4.19345 6.91372 0.327637
-4.19476 6.90003 0.294915
-4.14456 7.39228 0.345195
-4.79298 7.75083 0.181833
-4.67732 7.63582 0.216976
-4.68571 8.16732 0.257264
-4.61991 8.14232 0.277936
-4.6195 8.16179 0.330197
-4.26042 7.76049 0.295939
-4.35726 7.59322 0.318036
-4.21188 7.84581 0.320988
-4.20965 7.95224 0.326911
-3.99002 6.15956 0.367474
-4.02576 6.1522 0.314187
-3.52918 5.71274 0.458907
-3.42757 5.71306 0.45535
-3.7292 6.08784 0.411554
-3.63401 6.02508 0.41136
-3.4329 5.88998 0.391143
-3.5387 6.17492 0.481337
-4.04513 6.52353 0.32398
-4.0304 6.23901 0.375145
-4.02996 6.25034 0.34833
-3.94853 6.59121 0.364032
-3.80122 6.77026 0.350478
-3.54859 6.29274 0.409357
-3.4822 6.26917 0.488573
-3.48252 6.76232 0.414556
-3.51514 6.78797 0.287403
-3.44925 6.85664 0.49924
-3.53142 6.81942 0.424609
-3.55923 6.77557 0.448075
-3.4802 6.76731 0.448361
-3.26136 5.84094 0.392972
-3.352 5.64004 0.404662
-3.1872 5.79042 0.47901
-3.14704 5.76572 0.483381
-3.14712 5.6511 0.481588
-3.08796 5.72919 0.482317
-3.28599 5.69878 0.497281
-3.14681 5.60229 0.468842
-3.34845 5.57652 0.455659
-3.20331 5.63607 0.495997
-3.20386 5.63477 0.48726
-3.24437 6.05204 0.501857
-3.32602 5.92936 0.510321
-3.22744 5.92929 0.508913
-3.18751 5.90525 0.474041
-3.29136 5.89873 0.454851
-3.25283 5.89641 0.518014
-3.39475 6.12281 0.448156
-3.26783 6.10596 0.493309
-3.21955 6.081 0.493305
-3.30962 6.06841 0.501439
-3.13746 5.88031 0.489738
-2.98265 5.69514 0.552045
-2.98265 5.69514 0.552045
-2.91254 5.67136 0.492097
-2.83686 5.65975 0.439532
-3.08097 5.55263 0.518093
-3.00055 5.53966 0.542677
-3.04915 5.8154 0.450064
-2.7534 5.75314 0.53674
-2.76539 5.696 0.489896
-2.78426 5.64712 0.488211
-2.78704 5.5952 0.488705
-2.9417 5.53228 0.523429
-3.03885 5.67972 0.492212
-3.03885 5.67972 0.492212
-2.98233 5.6349 0.500792
-3.03956 5.60914 0.555516
-3.03884 5.52407 0.495472
-2.87448 5.81637 0.488555
-2.9452 5.60213 0.587193
-2.7899 5.85997 0.490175
-2.89378 6.1472 0.440447
-2.91259 6.04585 0.488653
-2.85295 5.93452 0.43987
-3.05502 5.95833 0.490622
-2.95863 5.90415 0.539345
-2.97315 5.96378 0.493459
-2.97471 5.96242 0.471148
-3.37615 6.41433 0.397179
-3.18933 6.46706 0.441423
-3.14843 6.5161 0.442547
-3.10216 6.448 0.439326
-3.22283 6.84939 0.441254
-2.96855 6.34753 0.399122
-3.07303 6.25335 0.464643
-3.97381 7.52535 0.366801
-3.85004 7.23221 0.413449
-3.52287 7.11775 0.391766
-3.513 7.02083 0.460502
-3.74492 7.46444 0.330758
-3.62825 7.52531 0.469928
-3.48818 7.21775 0.457208
-3.78433 7.82761 0.413814
-3.78433 7.82761 0.413814
-3.44271 7.7419 0.381057
-3.44271 7.7419 0.381057
-3.74394 7.5895 0.433329
-3.53722 7.69306 0.450678
-3.4331 8.09326 0.416785
-3.68101 8.15717 0.323268
-3.67936 8.16334 0.289185
-3.26195 6.91818 0.382356
-3.26308 7.17693 0.454198
-3.28024 7.0541 0.439624
-3.16507 6.9966 0.454739
-3.22743 6.96034 0.503489
-3.1795 7.10494 0.480389
-3.18193 7.11155 0.442048
-3.29957 7.00495 0.444562
-3.29957 7.00495 0.444562
-3.22014 7.39645 0.390325
-3.16521 7.53733 0.452234
-3.12959 7.5527 0.503862
-3.12981 7.55769 0.509971
-3.12216 7.45702 0.485778
-3.2206 7.37936 0.476644
-3.40744 7.25919 0.497241
-2.95863 7.04823 0.406293
-2.93371 7.01168 0.416468
-2.89415 7.01542 0.434057
-2.93503 6.99888 0.434363
-2.88455 6.97441 0.423989
-2.98933 7.04514 0.490289
-2.99539 6.91216 0.440667
-3.20881 7.62749 0.452576
-3.13762 7.64041 0.493489
-3.10673 8.20863 0.3692
-3.24593 8.0365 0.380243
-3.14646 8.21285 0.400236
-3.14789 8.20863 0.380002
-3.33794 8.14749 0.397029
-3.16295 8.06299 0.413634
-3.2777 8.0629 0.387454
-3.37611 8.00184 0.39916
-3.37611 8.00184 0.39916
-3.16236 8.0506 0.497528
-2.77098 7.75151 0.394166
-3.06508 7.58408 0.471497
-2.77776 7.75016 0.527714
-3.03238 8.07548 0.422242
-2.80411 7.92155 0.339983
-3.02417 7.97705 0.428727
-3.90798 8.25887 0.355849
-2.56758 5.65986 0.395723
-2.56758 5.65986 0.395723
-2.7072 5.71259 0.489235
-2.66629 5.78776 0.577623
-2.63154 6.06978 0.438784
-2.35474 5.59277 0.482092
-2.25481 5.7223 0.572054
-2.19077 5.98186 0.377386
-2.19189 6.04798 0.196472
-2.19189 6.04798 0.196472
-2.31976 6.16404 0.431219
-2.49299 6.49532 0.416742
-2.55997 6.51696 0.395654
-2.72985 6.51967 0.447417
-2.54159 6.209 0.441767
-2.7383 6.59343 0.433961
-2.73802 6.59814 0.43828
-2.39293 6.22681 0.433577
-2.39468 6.22906 0.469138
-2.27742 6.38466 0.46944
-1.74734 5.68405 0.384494
-1.7548 5.55288 0.385677
-1.47084 5.60277 0.3332
-1.40254 5.75574 0.333737
-1.47233 5.75501 0.290165
-1.4289 5.7148 0.331646
-1.49551 5.64384 0.330714
-1.49551 5.64384 0.330714
-1.59345 5.92244 0.334154
-1.64312 6.10083 0.320684
-1.64074 6.09808 0.27398
-1.56917 5.88671 0.343704
-1.72302 6.67448 0.280167
-1.70859 6.59623 0.318606
-1.79934 6.72829 0.328151
-1.79872 6.73128 0.319339
-1.72023 6.79193 0.283147
-1.49558 6.45306 0.285823
-1.60958 6.7037 0.332742
-1.52827 6.68717 0.343673
-1.41415 6.6736 0.360074
-1.64882 6.5405 0.285758
-1.66254 6.66339 0.293637
-2.47832 7.45137 0.318778
-2.54997 7.46028 0.341803
-2.607 7.42468 0.343293
-2.57462 7.44733 0.302684
-2.15014 7.50127 0.292153
-2.14186 7.33569 0.277478
-2.05469 7.33084 0.245392
-2.37884 7.30509 0.266973
-2.08436 7.27004 0.28585
-2.59151 7.63894 0.359916
-2.59151 7.63894 0.359916
-2.30567 7.77182 0.268902
-2.07357 7.8391 0.241813
-2.0622 7.75175 0.241375
-2.12509 7.7535 0.287713
-2.12509 7.7535 0.287713
-2.25674 7.62624 0.181838
-2.12084 8.15067 0.236813
-2.05466 7.93751 0.243208
-1.94691 7.20219 0.24872
-1.7499 6.90287 0.34488
-1.9702 6.9852 0.309699
-1.78996 7.46826 0.328861
-1.97135 7.32653 0.328587
-1.98316 7.24552 0.277269
-1.67611 7.21173 0.334641
-1.57733 7.17901 0.334176
-1.50889 6.9824 0.330033
-1.69226 6.97405 0.336944
-1.57785 7.22891 0.293867
-1.79661 7.67991 0.276603
-1.75818 8.22054 0.330928
-1.86522 8.20605 0.24377
-2.04599 8.1041 0.243486
-1.98053 8.05524 0.225747
-1.70347 7.58959 0.291687
-1.42115 8.08947 0.4307
-1.06404 5.71344 0.344494
-1.21009 5.837 0.379225
-1.11228 5.80317 0.365528
-1.08128 5.63975 0.420235
-1.32562 5.64324 0.37374
-1.21011 5.62393 0.381727
-1.0518 5.50876 0.420108
-1.10326 5.74709 0.369545
-1.15847 5.72319 0.322095
-1.2705 5.64866 0.372303
-1.26692 5.55198 0.358385
-1.26692 5.55198 0.358385
-1.12496 5.50048 0.42103
-1.03063 6.1512 0.3605
-1.16064 5.92051 0.364327
-1.16097 5.91329 0.394028
-1.07037 5.87951 0.358194
-1.07165 5.87681 0.358636
-0.849901 5.51086 0.380314
-0.80102 5.83816 0.407708
-0.80102 5.83816 0.407708
-0.766515 5.53259 0.470088
-0.702964 5.78423 0.533208
-0.718983 5.72901 0.5923
-0.851464 5.58124 0.508285
-1.30059 6.20985 0.285448
-1.29782 6.20933 0.32847
-1.25801 6.32831 0.457466
-0.971605 6.45708 0.377911
-0.702334 6.37471 0.393101
-0.702334 6.37471 0.393101
-0.936557 6.4462 0.378472
-0.833066 6.22078 0.46982
-0.695261 6.69469 0.418454
-0.334456 5.72858 0.511715
-0.498662 5.59772 0.627186
-0.426582 5.81688 0.458576
-0.383408 5.78309 0.520221
-0.676782 5.7046 0.464086
-0.394258 5.62702 0.563297
-0.588602 5.60421 0.505971
-0.476236 5.55597 0.557814
-0.662164 5.5507 0.532447
-0.5859 5.78939 0.466759
-0.525436 5.68423 0.561691
-0.585923 5.57625 0.469639
-0.547485 6.17397 0.412011
-0.487138 5.98596 0.470039
-0.342483 5.90882 0.519172
-0.424862 5.91017 0.534584
-0.489699 5.90232 0.515784
-0.489699 5.90232 0.515784
-0.454358 6.16111 0.455433
-0.510003 6.14161 0.471194
-0.555283 6.11931 0.519144
-0.370345 6.09782 0.464072
-0.407636 5.99348 0.51185
-0.407636 5.99348 0.51185
-0.432412 6.09458 0.509107
-0.555976 6.02358 0.509099
-0.49904 5.85799 0.509117
-0.501379 5.86037 0.468337
-0.339587 5.97504 0.468599
-0.293042 5.70406 0.508153
-0.325754 5.6849 0.523978
-0.204162 5.62771 0.546236
-0.322471 5.7808 0.516627
-0.0628261 5.70144 0.507331
-0.311717 5.62692 0.560874
-0.0244273 5.57457 0.554258
-0.130397 5.57455 0.549955
-0.21382 5.52594 0.56014
-0.0657377 5.76814 0.475737
-0.063135 5.76952 0.520182
0.00336511 5.72583 0.517187
-0.000548028 5.72734 0.452571
-0.172934 5.69233 0.560098
-0.172934 5.69233 0.560098
-0.251603 5.64336 0.561652
-0.120189 5.64114 0.521797
-0.120189 5.64114 0.521797
-0.301971 5.90203 0.540072
-0.292758 6.13819 0.512948
-0.181042 6.02981 0.467521
-0.179433 6.03052 0.441892
-0.0983046 5.87445 0.471338
-0.308877 5.84337 0.510924
-0.218947 5.93878 0.519905
-0.345516 6.22355 0.468475
-0.654092 6.87039 0.431537
-0.612786 6.67656 0.516042
-0.634912 6.77257 0.461151
-0.120535 6.23573 0.561546
-1.18868 7.09633 0.375071
-1.03733 7.13457 0.4721
-1.30559 7.38503 0.421812
-0.931569 7.2303 0.465982
-1.26429 7.87012 0.47342
-1.25851 8.12315 0.360519
-1.1524 8.18817 0.491292
-1.15339 8.09958 0.471035
-0.75589 7.68082 0.38002
-0.717024 7.82092 0.469459
-0.711483 7.74459 0.469592
-0.695172 8.15028 0.519789
-0.931109 8.09409 0.470093
-0.849198 8.08441 0.470723
-0.367252 6.96561 0.333093
-0.454293 7.13856 0.457955
-0.602054 7.46064 0.467388
-0.249526 7.50975 0.469673
-0.620386 7.90392 0.507748
-0.548036 8.15258 0.415624
-0.632264 8.19808 0.459878
-0.640287 8.07498 0.468477
-0.571972 8.05936 0.510442
-0.59619 8.10078 0.520972
-0.599134 8.10176 0.470532
-0.00293135 7.76199 0.410643
-0.0890617 7.88516 0.43558
-0.000509997 7.76205 0.452188
-0.0302973 8.11404 0.427819
-0.326647 8.12669 0.423555
-0.301749 8.04476 0.433095
-0.0249489 8.01145 0.474558
-3.51591 2.02065 80.4841
0.172991 -7.95125 0.377261
0.0303184 -7.96868 0.324913
0.0138083 -8.04523 0.318996
0.279064 -8.10163 0.369219
0.335655 -8.12357 0.409437
0.310904 -7.96814 0.396327
0.35061 -8.06102 0.428151
0.287639 -7.61351 0.468477
0.334524 -7.81638 0.426379
0.311233 -7.8621 0.46648
0.603378 -8.02131 0.388288
0.603378 -8.02131 0.388288
0.547157 -8.22126 0.403276
0.385976 -8.22439 0.381115
0.473153 -8.06119 0.422314
0.695526 -7.92066 0.335098
0.383541 -7.67177 0.421075
0.555239 -7.77051 0.416798
0.498452 -7.66915 0.416249
0.69519 -7.76462 0.417965
0.620843 -7.79925 0.41339
0.572709 -7.58784 0.598827
0.580482 -7.59172 0.466369
0.421435 -7.76116 0.465236
0.244762 -7.44851 0.353509
0.155545 -7.37446 0.387486
0.249106 -7.44775 0.425641
0.276085 -7.21852 0.421188
0.287656 -7.00997 0.470865
0.167266 -7.1528 0.428134
0.417112 -7.3632 0.527239
0.5531 -7.30512 0.459125
0.653827 -6.9862 0.415474
0.653827 -6.9862 0.415474
0.375108 -6.95588 0.421059
0.424349 -7.18938 0.518423
0.612834 -7.00885 0.425813
0.482534 -7.19292 0.441275
0.779872 -7.94487 0.420048
0.718936 -8.11047 0.40103
0.766733 -8.20004 0.366771
0.804295 -7.98135 0.377567
0.853956 -7.97403 0.467314
0.832937 -7.58667 0.381945
0.982909 -7.62267 0.413272
0.906243 -7.58343 0.470851
0.835528 -7.58428 0.427433
0.866747 -7.63196 0.448364
0.866747 -7.63196 0.448364
1.06762 -7.72435 0.385775
1.06762 -7.72435 0.385775
1.1525 -7.56583 0.486282
1.05433 -7.60617 0.426678
0.981386 -7.30596 0.362417
0.801844 -7.32489 0.421712
0.966007 -7.384 0.326891
0.843605 -7.25671 0.42009
0.952685 -7.29283 0.380947
0.915533 -7.3022 0.485062
0.801196 -7.32081 0.431905
0.747648 -7.41692 0.469453
0.866498 -7.46804 0.45293
0.700858 -7.52059 0.470184
0.702756 -7.52303 0.506463
0.991965 -6.92347 0.420636
0.785733 -7.20473 0.422387
0.760642 -7.10412 0.423144
0.70084 -6.89802 0.47134
0.702929 -6.89909 0.438406
0.891022 -6.92338 0.457806
0.766557 -7.06182 0.472668
0.892545 -7.05981 0.43107
0.947181 -6.89796 0.472165
1.2841 -7.48768 0.292247
1.2841 -7.48768 0.292247
1.34734 -7.08732 0.421267
1.22966 -7.10921 0.418934
1.31991 -7.05802 0.37515
1.31991 -7.05802 0.37515
1.34148 -6.96362 0.474283
1.14395 -6.9745 0.468492
1.16361 -6.98534 0.473326
1.35323 -7.01079 0.42502
1.07049 -7.06911 0.469528
1.35672 -6.9069 0.489556
0.241027 -6.56299 0.418015
0.0990468 -6.86417 0.379879
0.449245 -6.77605 0.417004
0.465918 -6.55783 0.511701
0.506586 -6.57632 0.597696
0.369732 -6.75626 0.457629
0.417055 -6.57846 0.498103
0.629893 -6.20792 0.418898
0.367435 -6.23524 0.417922
0.367593 -6.23524 0.422296
0.580329 -6.39086 0.419478
0.564157 -6.51656 0.418955
0.507115 -6.34444 0.417849
0.679081 -6.38544 0.42139
0.564169 -6.52199 0.418623
0.432676 -6.4151 0.432236
0.62402 -6.34638 0.470143
0.482 -6.39485 0.42911
0.613069 -6.42627 0.428079
0.481837 -6.45625 0.425776
0.490595 -6.50459 0.505018
0.504097 -6.44473 0.467311
0.0494094 -6.18944 0.377624
0.0494094 -6.18944 0.377624
0.294388 -5.73235 0.402789
0.139356 -5.63359 0.468129
0.121614 -5.66064 0.54281
0.163939 -5.72706 0.487191
0.179904 -5.543 0.45194
0.0275226 -5.67403 0.510781
0.350609 -5.67669 0.512115
0.336856 -5.57364 0.467661
0.0487416 -5.58822 0.449228
0.167625 -5.59548 0.467783
0.273728 -5.54364 0.459587
0.564566 -6.12959 0.412241
0.564178 -6.13149 0.417993
0.522413 -5.97059 0.319307
0.49902 -5.90703 0.508433
0.360383 -5.63849 0.389245
0.673774 -5.55797 0.430402
0.613139 -5.58381 0.521412
0.413403 -5.6693 0.459122
0.440477 -5.51006 0.52196
0.604931 -5.58383 0.520013
0.956283 -6.80296 0.482712
0.757912 -6.84343 0.47077
0.776871 -6.60859 0.423796
0.776871 -6.60859 0.423796
0.826428 -6.73549 0.434894
0.782675 -6.63038 0.470616
0.71999 -6.47557 0.419702
1.0381 -6.50078 0.380996
0.760933 -6.42639 0.420288
0.838264 -6.51092 0.429062
0.838264 -6.51092 0.429062
0.817658 -6.2891 0.42527
1.37418 -6.67112 0.38763
1.28666 -6.71938 0.374856
1.07821 -6.84335 0.474428
0.77704 -5.85561 0.418161
0.818404 -5.93491 0.411573
0.936548 -6.07474 0.379435
0.774777 -6.1239 0.376502
0.774777 -6.1239 0.376502
0.821469 -5.91647 0.362018
0.944319 -5.9184 0.423727
0.892568 -5.91833 0.428016
0.84998 -6.01439 0.460614
0.776548 -5.58073 0.431537
0.77464 -5.58182 0.463966
1.24855 -6.12051 0.420565
1.15264 -6.14023 0.373973
1.35322 -6.16221 0.37114
1.0844 -5.62693 0.366659
1.0844 -5.62693 0.366659
1.4982 -7.59328 0.385514
1.42397 -7.78624 0.291686
1.42397 -7.78624 0.291686
1.68522 -7.8252 0.231905
1.68358 -7.82895 0.309992
1.54479 -7.84465 0.243059
1.59895 -7.63699 0.383813
1.77432 -8.03027 0.231659
1.73106 -8.10322 0.292512
1.95463 -8.16465 0.264408
2.05147 -8.21786 0.294939
1.7939 -8.10077 0.272616
1.94646 -7.91642 0.18391
1.77482 -7.68158 0.248781
1.55001 -7.38049 0.369593
2.01591 -7.32202 0.28235
1.88692 -7.00757 0.296063
1.97891 -6.9113 0.255421
1.81294 -6.91065 0.366802
2.15952 -7.96156 0.195765
2.14187 -8.18536 0.278536
2.37791 -7.64233 0.247802
2.37791 -7.64233 0.247802
2.3707 -7.76341 0.277326
2.23812 -7.75981 0.247992
2.08714 -7.67168 0.285648
2.45423 -7.56807 0.200388
2.51159 -7.84068 0.304728
2.46975 -7.77359 0.171833
2.61609 -7.41818 0.246892
2.69507 -7.33802 0.303239
2.54729 -6.96663 0.294287
1.68481 -6.79381 0.334768
1.43887 -6.77315 0.407871
1.49693 -6.2015 0.308449
1.54538 -6.51658 0.329584
1.88871 -6.82505 0.268879
1.88886 -6.83122 0.22342
1.96644 -6.52406 0.287779
1.96644 -6.52406 0.287779
1.67615 -6.07815 0.332724
1.57731 -6.15471 0.331025
1.66528 -5.8808 0.186551
1.81865 -6.01606 0.278157
1.81865 -6.01606 0.278157
2.01589 -6.13076 0.286414
2.06846 -5.82001 0.204312
1.84001 -5.55219 0.180125
2.3227 -6.72777 0.220392
2.34702 -6.63379 0.211607
2.37948 -6.22265 0.300016
2.47957 -6.58841 0.194748
2.42354 -6.66956 0.250185
2.5524 -6.71996 0.211206
2.44347 -6.26265 0.233373
2.55596 -6.23597 0.197213
2.48736 -6.25774 0.203311
2.48748 -6.34523 0.199379
2.22457 -5.84773 0.20855
2.38043 -5.9463 0.207633
2.30414 -5.94887 0.203055
2.18852 -5.57944 0.245369
2.13706 -5.60959 0.239584
2.17567 -5.67573 0.194163
2.18048 -5.6862 0.238502
2.12085 -5.70241 0.239259
2.32828 -5.78703 0.249104
2.25667 -5.79559 0.182255
2.2133 -5.82809 0.247409
2.36921 -5.83624 0.250266
2.45487 -6.08841 0.191227
2.52839 -6.12656 0.203677
2.42953 -6.17853 0.20149
2.87039 -7.87981 0.257167
2.91466 -7.60215 0.206149
2.94788 -7.89712 0.208494
3.26371 -8.18778 0.194726
3.14512 -7.86961 0.221252
2.93656 -7.27882 0.247067
2.8187 -7.28609 0.303772
2.76407 -7.36894 0.254203
2.99399 -7.21315 0.259949
3.42608 -7.00701 0.169171
3.3588 -7.12658 0.211879
3.13888 -7.11543 0.305192
3.59773 -7.60817 0.171917
3.62184 -7.68471 0.274588
3.77666 -7.7444 0.35521
3.74627 -7.69848 0.311028
4.02183 -8.04298 0.358284
3.68197 -7.00066 0.221445
3.60769 -7.07432 0.223157
3.45007 -6.88642 0.277476
4.08748 -7.38863 0.220294
4.08748 -7.38863 0.220294
3.82008 -6.9387 0.175502
3.60012 -6.23957 0.00347209
4.07507 -6.67826 0.0753501
3.90858 -6.16189 0.0320912
4.08936 -5.66432 0.0360667
4.08936 -5.66432 0.0360667
3.05444 -6.69769 0.202984
3.06847 -6.32647 0.169095
3.08465 -6.26373 0.168568
2.82478 -6.27749 0.162788
2.95973 -6.35445 0.275785
2.87644 -6.40524 0.205662
2.96142 -6.43058 0.158826
3.15646 -6.70032 0.209082
3.25202 -6.2391 0.169176
3.26052 -6.30759 0.156426
3.15667 -6.31233 0.220608
3.43856 -6.35409 0.156105
2.77803 -6.03912 0.198479
2.89466 -6.03093 0.26632
3.01882 -5.5629 0.255779
3.20511 -5.84787 0.197184
3.35086 -5.96287 0.172914
3.29872 -5.79115 0.15221
3.20581 -5.83529 0.209647
3.64995 -6.66888 0.127221
3.49391 -6.314 0.124596
3.50397 -6.39478 0.177122
3.50397 -6.39478 0.177122
3.45094 -6.45769 0.199935
3.95668 -6.27797 0.125227
3.5508 -6.16875 0.126963
3.55112 -6.1743 0.12193
4.04995 -6.11751 0.0807363
3.97011 -6.14131 0.123916
3.94368 -5.66139 0.0787365
4.06383 -5.70665 0.13041
4.48116 -7.91007 0.228238
4.39105 -7.2511 0.22454
4.27748 -7.1871 0.138703
4.27748 -7.1871 0.138703
4.44187 -7.12249 0.131185
4.19732 -7.21163 0.189869
4.81198 -7.33612 0.110757
5.07056 -7.61592 0.177294
5.08718 -7.73003 0.19173
5.27389 -7.80213 0.267013
5.37111 -7.81372 0.345653
5.46089 -7.5958 0.350831
4.92336 -7.44335 0.20224
5.10314 -7.51724 0.184535
5.10314 -7.51724 0.184535
5.03039 -6.91478 0.188232
4.89932 -7.17682 0.146358
5.24555 -7.2924 0.246758
5.43949 -7.28066 0.143331
5.33227 -6.97661 0.191005
4.25876 -6.23289 0.036647
4.61383 -6.32495 0.00723458
5.37533 -6.7246 0.0537207
4.84085 -5.86224 -0.0328129
4.84085 -5.86224 -0.0328129
5.30528 -5.87663 0.0718494
5.38509 -5.6271 -0.0455727
5.42126 -5.54909 0.0638897
4.41107 -6.81624 0.136157
4.21979 -6.45831 0.133748
4.67687 -6.58923 0.279755
4.60131 -6.26226 0.0855432
4.81015 -6.52286 0.0944628
4.23107 -6.10914 0.0848576
4.18123 -5.63773 0.18437
4.5458 -6.02693 0.101423
4.50442 -5.87599 0.156089
4.73558 -5.65784 0.102739
4.73664 -5.65366 0.08783
4.75996 -5.77286 0.0904122
5.08086 -6.46956 0.0916239
5.08086 -6.46956 0.0916239
4.84336 -6.50236 0.0842955
5.43189 -6.58379 0.141947
4.89158 -5.63333 0.102052
4.99789 -5.69249 0.0997175
4.99877 -5.67817 0.0950256
4.88416 -5.74375 0.0871127
0.0879856 -5.31 0.378101
0.112084 -5.27543 0.511865
0.114173 -5.27582 0.548035
0.276597 -5.17703 0.510975
0.144908 -5.21242 0.522583
0.144908 -5.21242 0.522583
0.154888 -5.27169 0.541304
0.235678 -5.40374 0.50759
0.251842 -5.46096 0.509825
0.19208 -5.46658 0.506813
0.183414 -5.33814 0.510076
0.183414 -5.33814 0.510076
0.161675 -5.42028 0.528418
0.327182 -5.44748 0.588944
0.331767 -5.45021 0.508677
0.0438044 -5.2652 0.460558
0.0496284 -5.26297 0.559712
0.093213 -5.31435 0.45564
0.120154 -5.3731 0.57109
0.0470697 -4.82205 0.522214
0.0792861 -4.92304 0.516895
0.170028 -5.14969 0.509235
0.106195 -5.02709 0.457866
0.342791 -5.1572 0.52576
0.0815851 -5.11652 0.559424
0.621106 -5.39592 0.419874
0.458502 -5.39682 0.388231
0.465749 -5.18161 0.532494
0.432379 -5.21521 0.509919
0.665792 -5.22407 0.470159
0.51357 -5.22319 0.48237
0.3674 -5.23087 0.520261
0.3674 -5.23087 0.520261
0.618156 -5.24583 0.471187
0.429484 -5.28564 0.560882
0.440449 -5.45548 0.520142
0.572468 -5.21477 0.515025
0.572468 -5.21477 0.515025
0.367366 -5.31684 0.522006
0.367305 -5.31619 0.520881
0.588076 -5.43969 0.50817
0.588297 -4.84761 0.407379
0.589001 -4.84785 0.418923
0.670129 -4.90477 0.417694
0.5883 -4.87286 0.306361
0.637107 -4.8462 0.518346
0.612125 -5.1492 0.494117
0.612125 -5.1492 0.494117
0.67327 -4.90187 0.471903
0.653559 -5.00174 0.506148
0.441558 -5.03934 0.50076
0.610713 -5.09289 0.467316
0.375608 -5.0315 0.431596
0.0870901 -4.6632 0.563851
0.32316 -4.20111 0.36224
0.32316 -4.20111 0.36224
0.311883 -4.31574 0.376864
0.311905 -4.31565 0.377205
0.49059 -4.61567 0.412584
0.669842 -4.75338 0.388419
0.578069 -4.49046 0.378618
0.547069 -4.56603 0.317332
0.530658 -4.61918 0.315497
0.564431 -4.7007 0.417006
0.492935 -4.52876 0.372213
0.465362 -4.79867 0.419087
0.540641 -4.51428 0.218622
0.67405 -4.48502 0.377522
0.531342 -4.61862 0.427798
0.687768 -4.80947 0.423218
0.394594 -4.28288 0.381607
0.637193 -4.25054 0.313854
0.358728 -4.26608 0.41979
0.637666 -4.25006 0.433668
0.757862 -5.39062 0.47156
0.75988 -5.39052 0.508777
0.710745 -5.44654 0.59928
0.77466 -5.2298 0.457753
1.02984 -4.93882 0.281499
0.899063 -5.0508 0.500406
1.06763 -5.36994 0.383135
1.15017 -4.89427 0.415087
1.15017 -4.89427 0.415087
0.728708 -4.58561 0.419443
0.772322 -4.58836 0.419399
0.849598 -4.60532 0.367114
0.8684 -4.54463 0.418173
0.702925 -4.76597 0.436745
1.01399 -4.70842 0.46603
0.741735 -4.73798 0.470959
0.727895 -4.24295 0.337313
0.988743 -4.2092 0.363003
1.03836 -4.26762 0.278711
0.785304 -4.34633 0.324146
0.863288 -4.46918 0.32951
0.906185 -4.19661 0.277873
0.917568 -4.28072 0.32926
0.99125 -4.28879 0.322821
0.99712 -4.30036 0.270991
0.944862 -4.33579 0.286002
0.947588 -4.34122 0.288375
1.12306 -4.48016 0.327959
1.25464 -4.51878 0.290853
1.15569 -4.54338 0.270904
1.33685 -4.603 0.331399
1.18617 -4.61442 0.289206
1.37499 -4.6966 0.282272
1.38299 -4.78655 0.290902
0.279034 -3.94704 0.367579
0.128898 -4.03661 0.416808
0.320476 -3.86861 0.278952
0.0822364 -3.90647 0.368278
0.152768 -3.81685 0.561631
0.120398 -3.99244 0.470154
0.269357 -3.73129 0.244119
0.268999 -3.72555 0.421728
0.246183 -3.66559 0.378857
0.246183 -3.66559 0.378857
0.0741811 -3.70659 0.376755
0.342269 -3.72299 0.377773
0.0983937 -3.48541 0.368369
0.0171824 -3.70927 0.374238
0.465497 -4.01708 0.339615
0.583447 -3.81941 0.290301
0.671206 -3.89822 0.329157
0.621274 -3.94766 0.314603
0.621274 -3.94766 0.314603
0.391976 -4.00393 0.436255
0.548031 -3.55326 0.41627
0.629904 -3.59151 0.418102
0.449237 -3.50141 0.417095
0.421542 -3.75858 0.369744
0.487063 -3.78307 0.372979
0.487063 -3.78307 0.372979
0.687017 -3.67687 0.432452
0.180234 -3.41099 0.382604
0.200098 -3.16734 0.51926
0.200098 -3.16734 0.51926
0.27091 -3.25244 0.460712
0.0982128 -3.31183 0.47489
0.33689 -3.41075 0.47287
0.0822578 -3.42989 0.469708
0.0658063 -3.01704 0.477392
0.131207 -2.80123 0.558788
0.0332564 -2.86673 0.558759
0.0332564 -2.86673 0.558759
0.115073 -2.87763 0.561445
0.337275 -2.78481 0.560156
0.316882 -2.86155 0.521054
0.318848 -2.86151 0.488439
0.286588 -2.9352 0.488094
0.311135 -3.06217 0.471105
0.308862 -3.06365 0.510352
0.376488 -3.24633 0.490367
0.558955 -3.06229 0.32997
0.426862 -2.88442 0.377702
0.426862 -2.88442 0.377702
0.631843 -2.81246 0.514077
0.62913 -2.86152 0.511358
0.489885 -2.8862 0.519091
0.694904 -2.90808 0.521788
0.651632 -2.92705 0.522325
0.536478 -3.04992 0.520466
0.547443 -3.05536 0.520225
0.542282 -2.87009 0.46916
0.585874 -2.92745 0.470854
0.701644 -3.80218 0.375857
0.991221 -3.85185 0.321994
0.723469 -4.02039 0.377196
0.914494 -3.74212 0.381482
1.00528 -3.7667 0.374125
0.989061 -3.61117 0.469664
1.21041 -3.98868 0.376562
1.21013 -3.99055 0.379323
1.26277 -4.09211 0.33282
1.13691 -4.10445 0.271502
1.04536 -3.79865 0.460437
1.38327 -3.44974 0.384704
0.782837 -3.11323 0.472059
0.833071 -3.17317 0.471016
0.841373 -3.27454 0.486966
0.72778 -3.12817 0.434762
0.725603 -3.12951 0.471681
0.775995 -3.17639 0.485354
0.798797 -3.30701 0.470306
0.827519 -3.09679 0.47009
0.881455 -2.83182 0.470084
0.788303 -2.84513 0.521063
0.788548 -3.0312 0.471449
0.865987 -3.09043 0.481736
0.766518 -2.92472 0.469106
0.766518 -2.92472 0.469106
0.761062 -2.90489 0.562407
1.34751 -3.15436 0.422687
1.35541 -3.32097 0.432255
1.34886 -3.09113 0.364656
1.25869 -2.83654 0.473143
1.25883 -2.83454 0.476159
1.27558 -3.0176 0.460871
1.25792 -2.90254 0.461469
1.14391 -3.09125 0.470217
1.11911 -2.90008 0.471326
1.18562 -2.96835 0.473859
1.56933 -5.19715 0.24072
1.63573 -5.25717 0.237198
1.63573 -5.25648 0.236083
1.7007 -5.27624 0.24494
1.7007 -5.27624 0.24494
1.48793 -5.12327 0.247225
1.60189 -5.0788 0.294502
1.54541 -4.88849 0.230067
1.54541 -4.88849 0.230067
1.46803 -4.88766 0.281882
1.60736 -5.07883 0.292194
1.60189 -5.14232 0.240939
1.72025 -5.13084 0.283885
1.88882 -5.24621 0.222139
1.89018 -5.18338 0.243358
1.88951 -5.18282 0.255586
1.86845 -5.2768 0.193044
1.76698 -5.29714 0.236103
1.8165 -5.20244 0.235629
1.83302 -5.33079 0.244888
1.8789 -5.4042 0.284856
