ply
format ascii 1.0
comment author: Caleb Adams & Jackson Parker
comment SSRL CV simple PLY writer
element vertex 1880
property float x
property float y
property float z
end_header
6.29131 -0.288039 -6.32138
6.26158 -0.540973 -6.49425
6.24677 -0.430614 -6.31515
6.41778 -0.284936 -6.36547
6.33583 -0.408338 -6.35518
6.41619 -0.349668 -6.33198
6.51776 -0.45576 -6.33489
6.489 -0.332734 -6.30514
6.48535 -0.40655 -6.45006
6.48535 -0.40655 -6.45006
4.80339 -0.961063 -6.27641
4.89397 -0.363499 -6.17999
4.73879 -0.430608 -6.28918
4.91335 -0.327179 -6.2536
4.86078 -0.388634 -6.18077
4.8714 -0.368799 -6.07789
4.88376 -0.405145 -6.03973
4.82222 -0.254468 -6.25458
4.8279 -0.257214 -6.25477
4.92998 -0.287996 -6.26369
4.94662 -0.40829 -6.20297
5.1097 -0.421891 -6.17647
5.14592 -0.439028 -6.21945
4.98545 -0.275734 -6.19284
5.06292 -0.413833 -6.22115
4.99738 -0.383011 -6.20225
4.94499 -0.464113 -6.26554
4.98015 -0.226495 -6.24391
5.07738 -0.268115 -6.23629
5.07271 -0.265569 -6.19968
5.24385 -0.414766 -6.25476
5.61801 -0.548752 -6.27556
5.70828 -0.589988 -6.2852
5.71684 -0.589168 -6.19986
5.59271 -0.702197 -6.25484
5.59265 -0.639435 -6.25649
5.69237 -0.539688 -6.24388
5.68313 -0.184135 -6.17784
5.91292 -0.441657 -6.27261
6.14928 -0.342697 -6.26326
6.1803 -0.0165821 -6.06479
6.41538 -0.279978 -6.26243
6.44726 -0.183954 -6.14943
6.44726 -0.183954 -6.14943
6.45041 -0.232083 -6.28453
6.55438 -0.0167434 -6.08852
6.52747 -0.117421 -6.10662
6.73727 -2.19609 -6.49613
6.58596 -2.20171 -6.49852
6.58596 -2.20171 -6.49852
6.68882 -2.28822 -6.45242
7.00714 -2.2821 -6.36073
6.97205 -2.38526 -6.30918
6.9777 -2.38806 -6.30883
6.63606 -3.83928 -5.48795
6.60261 -3.95643 -5.48428
6.69295 -3.97864 -5.38611
6.6501 -4.01488 -5.36332
6.59275 -4.06522 -5.40442
6.7848 -3.91465 -5.39343
6.74028 -3.96032 -5.31607
6.74028 -3.96032 -5.31607
6.70958 -4.02898 -5.39485
7.04166 -4.26594 -5.44733
7.09588 -4.28872 -5.26454
6.88184 -4.28977 -5.34748
6.90694 -3.85208 -5.34869
6.90694 -3.85208 -5.34869
7.03323 -3.91449 -5.38372
7.00443 -4.00116 -5.25384
7.07691 -4.05651 -5.35254
6.83454 -3.65126 -5.47969
6.5873 -3.66005 -5.55325
6.64131 -3.63133 -5.35223
6.59414 -3.78922 -5.42066
6.61083 -3.73043 -5.46999
6.60282 -3.71943 -5.40913
6.69457 -3.78932 -5.41728
6.62708 -3.57717 -5.41852
6.68724 -3.43868 -5.58243
6.67617 -3.4272 -5.49872
6.81929 -3.31843 -5.51453
6.7614 -3.35739 -5.49517
6.67058 -3.3633 -5.57232
6.68007 -3.52161 -5.45893
6.80787 -3.38134 -5.38624
6.7671 -3.4576 -5.46715
6.7072 -3.47163 -5.47001
6.95682 -3.73944 -5.34607
7.08041 -3.59094 -5.39368
7.01354 -3.59109 -5.40544
6.84253 -3.55525 -5.46085
6.92355 -3.46436 -5.34906
7.09305 -3.50754 -5.43119
6.85991 -3.42138 -5.46311
7.30381 -4.18883 -5.30323
7.34923 -4.14877 -5.37285
7.61511 -4.32575 -5.52237
7.58117 -4.30847 -5.47977
7.58117 -4.30847 -5.47977
7.39767 -4.23232 -5.41254
7.50357 -4.23072 -5.33502
7.59617 -4.24893 -5.38694
7.57406 -3.87828 -5.53807
7.49908 -3.87361 -5.50765
7.44564 -4.07383 -5.41142
7.17109 -3.56328 -5.4292
7.31537 -3.75298 -5.4166
7.2908 -3.34044 -5.45936
7.28314 -3.40177 -5.45972
7.35574 -3.41444 -5.40439
7.34994 -3.42413 -5.46472
7.29006 -3.4628 -5.41772
7.29646 -3.45151 -5.35157
7.14065 -3.49929 -5.43409
7.12755 -3.36554 -5.46571
7.14938 -3.49335 -5.40242
7.59547 -3.58337 -5.48672
7.60683 -3.67303 -5.5186
7.48353 -3.4432 -5.55955
7.41699 -3.502 -5.57036
7.6181 -3.38567 -5.67162
7.6181 -3.38567 -5.67162
7.60813 -3.48532 -5.58277
7.55403 -3.52658 -5.37639
6.69073 -2.76291 -5.80517
6.57388 -2.77114 -5.77825
6.8165 -2.82897 -5.7849
6.78137 -2.80691 -5.80601
6.60751 -2.87937 -5.77524
6.9 -2.74613 -5.89784
6.92426 -2.81332 -5.85955
6.98288 -2.77998 -5.89695
6.73878 -3.22365 -5.51619
6.77969 -3.08783 -5.65004
6.74377 -3.1196 -5.51571
6.74377 -3.1196 -5.51571
6.81649 -3.23758 -5.51438
6.65278 -3.12075 -5.5721
6.61705 -3.13528 -5.36648
6.83737 -2.96654 -5.63023
6.73222 -2.85105 -5.72629
6.79567 -2.89525 -5.63995
6.8705 -3.22162 -5.63089
6.89161 -3.18182 -5.52563
6.89567 -3.2596 -5.48341
6.97452 -3.01195 -5.58271
7.04166 -3.13695 -5.49923
6.84427 -3.0537 -5.56575
6.8542 -3.06272 -5.64142
7.08098 -3.13731 -5.54803
7.07904 -2.77895 -5.71147
6.86326 -2.8125 -5.73428
6.89034 -2.97004 -5.57419
6.93041 -2.95031 -5.71883
6.93041 -2.95031 -5.71883
7.01739 -2.9444 -5.50871
6.94521 -2.86228 -5.73148
6.75544 -2.46062 -6.19613
6.7283 -2.61435 -6.06697
6.63342 -2.7258 -5.85379
6.58925 -2.67962 -5.98854
6.92854 -2.49353 -6.12197
7.02044 -2.60157 -6.15125
6.86308 -2.64635 -6.03156
6.88501 -2.69284 -6.0124
7.07169 -2.39384 -6.23897
7.12316 -2.78173 -5.79564
7.24104 -2.73867 -5.95675
7.38008 -2.87179 -5.81251
7.39462 -2.79546 -5.78568
7.40603 -2.80503 -5.87139
7.25991 -3.17151 -5.60154
7.37402 -3.17332 -5.49773
7.31381 -3.14839 -5.53217
7.31381 -3.14839 -5.53217
7.24859 -3.22293 -5.44771
7.34825 -3.26473 -5.453
7.21061 -2.84498 -5.62856
7.12782 -2.85647 -5.7006
7.53541 -3.11337 -5.65911
7.53541 -3.11337 -5.65911
7.4194 -3.21279 -5.56691
7.48494 -3.24922 -5.5853
7.42524 -3.274 -5.5355
7.50243 -3.12212 -5.6955
7.50149 -2.84494 -5.66701
7.5359 -2.93797 -5.69865
7.5359 -2.93797 -5.69865
7.31868 -2.64741 -6.08112
7.2806 -2.69187 -5.84061
7.1917 -2.72192 -5.9629
7.32439 -2.60096 -5.98179
7.30505 -2.64045 -5.97849
7.12238 -2.7211 -5.82201
7.28456 -2.27597 -6.07332
7.27662 -2.28386 -6.15538
7.1654 -2.23636 -6.17948
7.32334 -2.38731 -6.18189
7.4994 -2.50982 -6.10491
7.58575 -2.53082 -6.1662
7.46946 -2.60597 -6.16258
7.46946 -2.60597 -6.16258
7.62625 -2.66398 -6.07358
7.65952 -2.58906 -6.09738
7.39047 -2.59635 -5.94533
7.64094 -2.63479 -5.99928
7.43937 -2.64629 -5.90325
7.41496 -2.72397 -5.9329
7.60731 -2.66369 -5.97391
7.58551 -2.23303 -6.12924
7.65172 -2.24139 -6.12819
7.38941 -2.28366 -6.13067
7.84829 -4.25939 -5.56692
7.68167 -4.15428 -5.51297
7.6646 -4.217 -5.51687
7.66483 -4.27551 -5.51868
7.66483 -4.27551 -5.51868
7.88145 -4.14655 -5.56772
7.90649 -4.23435 -5.55219
7.78162 -4.26746 -5.5412
7.83148 -4.08759 -5.53845
7.84064 -4.04211 -5.58578
7.76598 -3.98348 -5.59286
7.69008 -4.01199 -5.51856
7.74858 -4.05827 -5.54153
7.84972 -3.90871 -5.63252
8.03122 -4.14268 -5.59321
8.03122 -4.14268 -5.59321
8.1474 -4.32669 -5.57442
8.08112 -4.13421 -5.57306
8.12226 -4.20121 -5.5759
7.94082 -4.34359 -5.61527
8.07233 -4.24294 -5.56425
8.10555 -4.36852 -5.56557
7.96363 -4.26723 -5.50649
7.97281 -3.94976 -5.55326
8.07214 -3.88304 -5.56286
8.0487 -3.82935 -5.6268
8.18016 -3.87472 -5.55839
8.02319 -3.92511 -5.59047
8.1965 -4.0044 -5.54761
7.89176 -3.65367 -5.65953
7.9084 -3.70384 -5.67034
7.72448 -3.45202 -5.60177
7.90002 -3.48615 -5.66427
7.67519 -3.44383 -5.61202
7.75846 -3.53609 -5.63021
7.73379 -3.36457 -5.64897
8.06455 -3.76201 -5.59491
8.18168 -3.41091 -5.64123
8.0572 -3.35641 -5.63304
8.12441 -3.39019 -5.66416
8.11508 -3.39809 -5.61582
8.05726 -3.46095 -5.63416
7.95661 -3.5235 -5.60056
8.31219 -3.87028 -5.51163
8.21314 -3.95412 -5.5569
8.31124 -3.9533 -5.46835
8.33498 -4.09528 -5.45634
8.37817 -3.62332 -5.51038
8.38686 -3.71134 -5.51856
8.22101 -3.8034 -5.54141
8.28758 -3.72812 -5.53098
8.38024 -3.46118 -5.61539
8.38024 -3.46118 -5.61539
8.23932 -3.51935 -5.6
8.23932 -3.51935 -5.6
7.70283 -2.94696 -5.75587
7.88637 -2.87209 -5.80273
8.14264 -2.8049 -5.75716
7.99388 -2.85533 -5.79339
7.75968 -3.0554 -5.6933
7.8757 -3.14345 -5.7082
7.78545 -3.21463 -5.73229
8.19138 -3.09342 -5.69115
8.05922 -3.13122 -5.7384
7.9755 -3.27323 -5.69994
8.19038 -3.19753 -5.64893
8.0991 -3.1893 -5.66593
8.18332 -2.87147 -5.70649
8.10876 -2.88008 -5.71551
8.10876 -2.88008 -5.71551
7.73959 -2.72202 -5.94525
7.69125 -2.67232 -6.01495
7.74365 -2.32532 -6.15304
7.87393 -2.26178 -6.01994
7.92243 -2.25744 -5.95194
7.99721 -2.63004 -5.94437
7.99721 -2.63004 -5.94437
8.00622 -2.58011 -5.99086
8.10337 -2.6381 -5.87115
8.10337 -2.6381 -5.87115
7.95508 -2.70526 -5.91301
7.99671 -2.31599 -5.94131
8.18432 -2.29383 -5.74992
8.18431 -2.31063 -5.7508
8.20697 -2.19731 -5.65756
8.17479 -2.2477 -5.70085
8.27193 -3.05464 -5.58205
8.27193 -3.05464 -5.58205
8.21506 -3.13472 -5.64351
8.23982 -2.91293 -5.63871
8.28996 -2.9925 -5.63802
8.28022 -3.00045 -5.58746
8.23184 -2.98001 -5.65456
8.28355 -2.84665 -5.73674
8.3079 -2.36517 -5.72897
6.82343 -2.08669 -6.44117
6.64201 -2.16831 -6.52139
6.64138 -1.67848 -6.47909
6.64138 -1.67848 -6.47909
6.58526 -1.70992 -6.47628
6.74945 -1.75527 -6.3523
6.80248 -1.83494 -6.42011
6.96601 -1.96428 -6.38716
6.85194 -1.98317 -6.4862
6.98315 -1.97132 -6.2983
6.95887 -2.02908 -6.43898
6.95879 -2.02062 -6.43812
6.95084 -1.94361 -6.34145
6.99147 -2.12536 -6.34022
6.88505 -1.7651 -6.47261
6.90848 -1.85125 -6.34444
6.86898 -1.72845 -6.38652
6.57816 -1.46348 -6.53759
6.68651 -1.40384 -6.35064
6.71011 -1.29954 -6.45085
6.57999 -1.1443 -6.53029
6.80769 -1.15671 -6.33103
7.18924 -2.18342 -6.29543
6.70038 -1.06005 -6.41251
6.82434 -1.05188 -6.34104
6.60728 -0.853115 -6.41497
6.64387 -0.911766 -6.40548
6.60997 -0.775484 -6.45787
6.63381 -0.796275 -6.37168
7.09545 -2.0354 -6.23476
7.09545 -2.0354 -6.23476
7.07696 -1.95432 -6.24329
7.01427 -1.9009 -6.26842
7.11038 -1.83631 -6.13926
6.91427 -1.8468 -6.28488
7.02772 -1.85915 -6.23779
6.86429 -1.86768 -6.27743
6.96924 -1.8845 -6.28841
6.98206 -1.80894 -6.23451
6.82447 -1.4456 -6.28416
6.82447 -1.4456 -6.28416
6.80014 -1.15478 -6.27416
6.94461 -1.38653 -6.08905
7.08755 -1.46403 -5.94041
6.97867 -1.29692 -6.12194
7.05502 -1.31156 -6.23563
6.92178 -1.31564 -6.20673
6.96312 -1.34465 -6.13458
7.05116 -1.2985 -6.00439
7.31243 -2.06567 -6.19734
7.15398 -1.97629 -6.19796
7.12077 -2.09974 -6.23414
7.25561 -2.00133 -6.13427
7.18771 -2.10233 -6.18974
7.19419 -2.02133 -6.12262
7.14054 -1.79717 -6.11848
7.25282 -1.8583 -6.03988
7.13567 -1.90355 -6.13905
7.29177 -1.80799 -6.00709
7.34882 -1.66225 -5.91025
7.63565 -2.17484 -6.12121
7.42687 -1.97739 -6.11256
7.65614 -1.93885 -5.90944
7.49824 -1.81292 -5.87778
7.5407 -1.82153 -5.93327
7.49726 -1.66761 -5.83504
7.57299 -1.78814 -5.92802
7.65472 -1.88824 -5.86214
7.65488 -1.78364 -5.86211
7.65488 -1.78364 -5.86211
7.60586 -1.68316 -5.8902
7.13548 -1.40737 -6.07192
7.38208 -1.54114 -5.91842
7.35313 -1.46921 -5.78008
7.29618 -1.53153 -5.78783
7.21323 -1.46894 -5.79073
7.2285 -1.21773 -5.77004
7.32628 -1.17292 -5.74581
7.64511 -1.5994 -5.77499
7.53823 -1.60751 -5.84213
7.53823 -1.60751 -5.84213
7.37719 -1.41026 -5.73298
7.3088 -1.23406 -5.69413
7.17797 -1.15979 -5.67576
7.23652 -1.21422 -5.68741
7.37204 -1.2648 -5.64327
7.27701 -1.28062 -5.63788
7.26709 -1.28454 -5.74053
7.54888 -1.43481 -5.60489
7.63111 -1.55215 -5.63388
7.58192 -1.46365 -5.53863
7.4356 -1.49352 -5.70257
7.43358 -1.43798 -5.70415
7.56977 -1.50682 -5.74118
7.40693 -1.21428 -5.58753
7.59972 -1.28883 -5.57657
7.55996 -1.32218 -5.65186
7.50261 -1.36395 -5.69639
7.47846 -1.21707 -5.55724
7.6003 -1.25085 -5.43458
7.59617 -1.20494 -5.3997
7.62567 -1.19939 -5.26791
7.6196 -1.2135 -5.33101
7.63062 -1.16285 -5.45596
7.49607 -1.21121 -5.463
6.75343 -0.972885 -6.24621
6.75503 -0.733192 -6.18764
6.76524 -0.595221 -6.05716
6.70871 -0.681945 -6.10144
6.78094 -0.726892 -6.20293
6.90199 -1.08175 -6.11517
6.86089 -1.07753 -6.07557
6.95069 -0.854211 -5.95834
6.9183 -0.929657 -6.01504
6.85899 -0.56457 -6.00125
6.90975 -0.589517 -5.94969
6.90975 -0.589517 -5.94969
7.06587 -0.598675 -5.89453
6.9056 -0.639724 -5.91821
7.01082 -0.815276 -5.75018
7.0038 -0.670268 -5.81266
7.0038 -0.670268 -5.81266
6.90676 -0.730413 -5.82883
7.05257 -0.843259 -5.72384
7.07847 -0.892813 -5.66724
7.0959 -0.655087 -5.71894
6.77273 -0.360275 -6.24301
6.80374 -0.523673 -6.12001
6.79693 -0.522658 -6.06859
6.71104 -0.400868 -6.04855
6.71104 -0.400868 -6.04855
6.59476 -0.0959927 -6.03007
6.5895 -0.192885 -6.15654
6.58954 -0.243169 -6.1568
6.70262 -0.0327852 -5.96702
6.70262 -0.0327852 -5.96702
6.87158 -0.360359 -6.02409
6.87994 -0.413457 -6.06674
6.96175 -0.477776 -6.02168
6.87899 -0.515191 -6.13165
7.0915 -0.506579 -5.93324
6.87188 -0.315733 -5.97091
7.10095 -0.360241 -5.98356
7.08117 -0.29894 -5.8915
7.09226 -0.30163 -5.97523
6.97534 -0.472169 -5.96879
6.99827 -0.542559 -5.84037
7.00556 -0.173383 -5.93183
6.90981 -0.268351 -5.94976
6.90981 -0.268351 -5.94976
7.00928 -0.0725404 -5.95397
7.0189 -0.0168202 -5.95362
7.15807 -0.555756 -5.77236
7.13069 -0.606064 -5.79498
7.22979 -0.640373 -5.76493
7.29296 -0.946163 -5.51181
7.3865 -0.987878 -5.45626
7.36149 -0.657057 -5.71479
7.16816 -0.817459 -5.57377
7.38276 -0.695032 -5.59024
7.29535 -0.597588 -5.72576
7.27816 -0.698867 -5.69602
7.27633 -0.696571 -5.59511
7.14409 -0.755055 -5.63599
7.50044 -0.937426 -5.58916
7.3928 -0.554806 -5.60008
7.59232 -0.598418 -5.63303
7.54304 -0.631859 -5.64051
7.61741 -0.640144 -5.63046
7.40183 -0.628188 -5.64055
7.64016 -0.782307 -5.50699
7.22466 -0.374488 -6.01205
7.27856 -0.46343 -5.75144
7.18183 -0.472021 -5.83778
7.12236 -0.392244 -5.82285
7.16548 -0.0167001 -5.8993
7.17253 -0.016627 -5.82611
7.14211 -0.0754029 -5.97303
7.22892 -0.125589 -5.86419
7.34447 -0.175613 -5.79031
7.2686 -0.203896 -5.8248
7.32216 -0.0671349 -5.80948
7.34015 -0.128627 -5.91361
7.16545 -0.153648 -5.89877
7.19997 -0.217862 -5.95412
7.40387 -0.414367 -5.76363
7.41262 -0.100594 -5.80987
7.47431 -0.0307355 -5.76172
7.3772 -0.340675 -5.73385
7.22901 -0.27133 -5.73623
7.3573 -0.474709 -5.71704
7.28544 -0.525015 -5.70874
7.2933 -0.521524 -5.62766
7.63405 -0.27183 -5.65851
7.59884 -0.404452 -5.54617
7.64216 -0.426837 -5.62537
7.62271 -0.462704 -5.48678
7.61831 -0.301347 -5.67418
7.55555 -0.0335872 -5.70606
7.6264 -0.270485 -5.6016
7.52659 -0.0791775 -5.66878
7.52371 -0.125343 -5.67933
7.618 -0.133907 -5.67092
7.44119 -0.184193 -5.7033
7.58511 -0.251117 -5.67254
7.39388 -0.268176 -5.74292
7.80587 -2.01856 -5.93323
7.73201 -2.13601 -5.98259
7.7218 -1.88436 -5.89086
8.02003 -2.12271 -5.83616
7.81751 -1.6825 -5.68808
8.01757 -1.98834 -5.7317
8.19867 -1.99647 -5.65336
8.12941 -1.75302 -5.51829
8.12857 -1.68592 -5.47573
8.18714 -1.73214 -5.49956
7.9981 -1.82444 -5.59229
7.74822 -1.49014 -5.53917
7.74788 -1.44751 -5.50002
7.67618 -1.58628 -5.65485
7.7099 -1.62406 -5.6966
7.69287 -1.51492 -5.66635
7.92985 -1.43075 -5.5001
7.66892 -1.10862 -5.3075
7.78023 -1.33009 -5.44352
7.67257 -1.33844 -5.46571
7.78009 -1.26739 -5.45759
7.7377 -1.29244 -5.40875
8.14646 -1.63176 -5.51761
8.08433 -1.48041 -5.32459
8.12761 -1.56015 -5.4195
8.0094 -1.09561 -5.31139
8.20752 -1.19584 -5.25242
8.24032 -2.12204 -5.64042
8.2385 -1.71548 -5.48578
8.22839 -1.64889 -5.45344
8.26874 -1.67327 -5.43278
8.36418 -1.32957 -5.21818
7.76237 -0.894994 -5.40384
7.87761 -0.857365 -5.3633
7.92213 -0.552172 -5.51726
7.83788 -0.639949 -5.43972
7.80451 -0.765463 -5.43656
8.03372 -0.840511 -5.28925
7.97483 -0.949142 -5.24569
7.9761 -0.999467 -5.30927
7.95072 -0.873787 -5.29071
8.20712 -0.957474 -5.24873
8.07516 -0.815095 -5.27762
7.96952 -0.589774 -5.38933
8.12661 -0.610624 -5.35796
7.71705 -0.326299 -5.62028
7.71705 -0.326299 -5.62028
7.72496 -0.397212 -5.60506
7.76546 -0.443611 -5.5527
7.7652 -0.284506 -5.55179
7.7652 -0.284506 -5.55179
7.85491 -0.497443 -5.4685
7.74662 -0.518718 -5.45352
7.74662 -0.518718 -5.45352
7.74208 -0.0835859 -5.63997
7.74922 -0.125244 -5.58195
7.68431 -0.134111 -5.65874
8.09464 -0.305363 -5.43376
8.20095 -0.284544 -5.34912
7.97839 -0.317942 -5.43527
8.02823 -0.322155 -5.40943
8.15861 -0.326256 -5.31459
8.06266 -0.0460693 -5.47776
8.01322 -0.267748 -5.50069
8.15955 -0.175505 -5.35763
8.13486 -0.208979 -5.36217
8.11185 -0.100406 -5.46587
8.27294 -1.03691 -5.23304
8.21462 -0.898846 -5.21162
8.32441 -0.305206 -5.32732
8.29032 -0.276105 -5.2837
8.29032 -0.276105 -5.2837
8.26549 -0.317741 -5.284
8.20784 -0.334477 -5.28937
8.2579 -0.522651 -5.30221
8.3331 -0.133825 -5.33517
8.24134 -0.0501248 -5.2936
8.25912 -0.246725 -5.34801
8.28029 -0.890468 -5.17719
0.267311 0.0140216 -8.83746
0.232023 0.202621 -8.94069
0.164639 0.0508446 -8.82715
0.034093 0.225229 -8.98366
0.309705 0.126445 -8.89276
0.317618 0.0251293 -8.7926
0.491053 0.0562964 -8.74069
0.467467 0.194018 -8.70926
0.467467 0.194018 -8.70926
0.551415 0.0167847 -8.57523
0.351295 0.252588 -8.73532
0.468195 0.0843067 -8.61609
0.468082 0.0841913 -8.65978
0.522049 0.292395 -8.59122
0.050684 0.573925 -8.80151
0.079088 0.652722 -8.88059
0.0839488 0.833139 -8.57536
0.306377 0.770269 -8.51101
0.392289 0.702816 -8.51082
0.393042 0.70268 -8.51659
0.339985 0.713977 -8.49666
0.561901 0.177307 -8.65827
0.604796 0.0646012 -8.61312
0.559423 0.219558 -8.63762
0.653007 0.185658 -8.5945
0.551734 0.016775 -8.59513
0.785679 0.0505379 -8.55772
0.720915 0.320406 -8.48784
0.141391 1.05686 -8.44718
0.134035 1.05144 -8.38254
0.502976 1.04782 -8.21591
0.460166 0.924443 -8.31798
0.300868 1.03439 -8.2542
0.805862 0.345677 -8.41295
0.81126 0.289759 -8.4584
0.81126 0.289759 -8.4584
0.805878 0.44969 -8.41297
0.944414 0.125946 -8.37066
0.944414 0.125946 -8.37066
0.843756 0.0842666 -8.43568
0.93708 0.0365916 -8.33068
1.09229 0.115185 -8.2342
0.852558 0.0169499 -8.34366
0.852118 0.0210481 -8.38678
0.924442 0.179938 -8.39084
0.918755 0.185439 -8.44178
1.05124 0.277895 -8.26221
1.07753 0.3912 -8.27386
1.07753 0.3912 -8.27386
1.01264 0.303398 -8.28802
0.992833 0.421525 -8.32692
0.596723 0.758753 -8.36345
0.651316 0.824114 -8.3069
0.828933 0.57334 -8.39189
0.835248 0.571828 -8.33481
1.05189 1.08437 -8.00961
0.958825 0.83701 -8.14998
0.266821 1.30325 -8.14136
0.0497393 1.52992 -8.09923
0.216998 1.75586 -7.85456
0.016594 2.01597 -7.78625
0.183528 2.16617 -7.63417
0.183503 2.16602 -7.57695
0.351141 1.73712 -7.79624
0.40857 1.96908 -7.62375
0.408493 1.9645 -7.63002
0.380143 1.96355 -7.59875
0.566375 1.22447 -8.09008
0.81629 1.17907 -7.9411
0.65057 1.67101 -7.7166
0.707415 2.08057 -7.44927
0.617473 1.94109 -7.59485
1.06531 1.64898 -7.50098
0.93295 1.91795 -7.44881
1.0828 2.13848 -7.24303
1.11035 0.252501 -8.19573
1.11888 0.126064 -8.20117
1.35757 0.249955 -7.98109
1.34864 0.190951 -7.99112
1.12668 0.167892 -8.17907
1.30261 0.0898829 -8.01315
1.14374 0.0881205 -8.12093
1.25237 0.168178 -8.07483
1.23103 0.0337336 -8.04431
1.23103 0.0337336 -8.04431
1.169 0.00845444 -8.18028
1.14409 0.361801 -8.15715
1.15244 0.290219 -8.13405
1.21982 0.516798 -8.09472
1.26142 0.494275 -8.08773
1.26011 0.49595 -8.09923
1.15421 0.483012 -8.07807
1.35987 0.4773 -7.95958
1.21609 0.46635 -8.06244
1.21865 0.466674 -8.03954
1.20181 0.462428 -8.13961
1.18514 0.454033 -8.15074
1.2084 0.407231 -8.06325
1.3554 0.53385 -8.06647
1.34967 0.530824 -8.06586
1.25536 0.286472 -8.03384
1.40038 0.168375 -7.95968
1.38503 0.230872 -7.97698
1.3726 0.482817 -8.01957
1.3726 0.482817 -8.01957
1.58515 0.235305 -7.81993
1.59324 0.0670817 -7.70571
1.46791 0.235686 -7.83523
1.60148 0.184897 -7.71041
1.63475 0.449238 -7.85529
1.49359 0.327872 -7.89756
1.4055 0.322477 -7.88437
1.63371 0.490289 -7.88648
1.51621 0.359291 -7.87311
1.51621 0.359291 -7.87311
1.6016 0.298102 -7.76575
1.61794 0.285524 -7.75752
1.34642 0.575815 -8.05555
1.33044 0.581244 -7.99172
1.28162 0.797446 -8.04183
1.42693 0.56737 -8.03342
1.42316 0.578418 -8.00103
1.33463 0.873809 -7.7751
1.55033 0.785975 -7.90826
1.60145 0.64664 -7.85569
1.75951 0.251852 -7.67105
1.75886 0.188041 -7.63331
1.79287 0.155235 -7.64121
1.79236 0.159456 -7.60072
1.81828 0.226866 -7.64104
1.75205 0.51631 -7.83836
1.78495 0.474362 -7.79601
1.78572 0.474162 -7.78896
1.85094 0.404041 -7.70379
1.90988 0.520405 -7.70052
1.8509 0.398489 -7.70405
1.8509 0.390016 -7.70408
1.71872 0.411629 -7.79776
1.94779 0.134657 -7.48349
1.93445 0.201539 -7.56214
1.95964 0.348581 -7.66068
2.08349 0.516193 -7.63771
2.00907 0.281018 -7.51744
1.80542 0.738272 -7.84249
1.83428 0.62552 -7.8716
1.79415 0.567279 -7.87747
1.71894 0.773186 -7.9018
1.74609 0.651179 -7.89255
2.05927 0.633715 -7.73629
2.14547 0.673728 -7.73339
1.93917 0.631355 -7.81577
1.98564 0.592196 -7.80838
2.0104 0.718383 -7.76212
1.9886 0.706955 -7.66057
2.14744 0.667949 -7.78542
2.19077 0.752295 -7.62992
1.94335 1.02074 -7.69424
2.05674 0.864159 -7.69232
2.07873 0.928552 -7.63834
2.16297 1.0322 -7.58429
1.23047 1.30798 -7.85444
1.52467 1.12242 -7.73853
1.43427 1.40266 -7.64435
1.4341 1.39704 -7.64309
1.90067 1.35923 -7.51487
1.93381 1.53655 -7.45445
1.93381 1.53655 -7.45445
1.28286 2.1812 -7.17612
1.51049 1.86113 -7.29716
1.88281 1.63114 -7.30274
1.74996 1.50137 -7.37988
2.11754 1.61427 -7.23081
1.66512 2.0408 -7.02951
2.18263 1.69939 -7.26126
2.15722 1.6646 -7.26267
2.05765 1.66472 -7.29529
2.05765 1.66472 -7.29529
1.93303 1.66475 -7.32278
2.06578 1.75244 -7.24661
2.06578 1.75244 -7.24661
2.04872 1.9385 -7.04121
0.125284 2.6772 -7.43281
0.0121197 2.6391 -7.52542
0.0121197 2.6391 -7.52542
0.0970472 2.59646 -7.45108
0.0169179 2.51026 -7.59885
0.363384 2.34384 -7.39711
0.0666859 2.84096 -7.44702
0.00774015 2.80733 -7.45725
0.107933 2.78733 -7.43998
0.249825 2.68895 -7.33638
0.225298 2.95298 -7.26068
0.233452 2.94501 -7.30805
0.268666 2.96785 -7.22128
0.149931 2.92799 -7.32594
0.108309 2.88209 -7.37672
0.0113039 2.88205 -7.36897
0.116199 3.27966 -7.21213
0.0165699 3.17299 -7.30561
0.16487 3.27611 -7.22118
0.100275 3.0957 -7.28823
0.252121 3.26498 -7.23103
0.252121 3.26498 -7.23103
0.258553 3.16101 -7.19988
0.25816 3.05289 -7.2025
0.169343 3.03547 -7.27344
0.0662614 3.23844 -7.30895
0.216675 3.07841 -7.25103
0.34979 2.91835 -7.15361
0.396314 2.95608 -7.14977
0.325305 2.85303 -7.25325
0.549382 2.96819 -6.99881
0.509289 3.05925 -7.08335
0.707462 2.53919 -7.24111
0.882208 2.68227 -6.85307
1.03189 2.51441 -6.82033
0.591234 2.83082 -7.24377
0.667066 2.79531 -6.99122
0.65053 2.8458 -6.99964
0.65053 2.8458 -6.99964
0.657739 3.20175 -6.96141
0.763103 3.05828 -6.94745
0.7659 3.05889 -6.92209
0.79293 3.22609 -6.90549
0.865689 3.27195 -6.84632
0.950197 3.1203 -7.00804
0.938863 3.1148 -7.0078
0.882607 3.10167 -7.04016
1.0149 3.26714 -6.77532
0.0416493 3.43903 -7.18187
0.0896936 3.48624 -7.22092
0.0165864 3.48888 -7.19976
0.191113 3.48044 -7.20009
0.11506 3.67686 -7.22143
0.219836 3.73521 -7.17121
0.174899 3.66991 -7.2167
0.175341 3.5844 -7.22129
0.317518 3.36261 -7.14629
0.441444 3.46549 -7.08266
0.402258 3.54694 -7.096
0.399593 3.54718 -7.07277
0.32451 3.6731 -7.15099
0.314248 3.58916 -7.11868
0.51632 3.70176 -7.014
0.393381 3.73975 -7.0455
0.545818 3.66344 -6.96877
0.482929 3.64714 -7.01113
0.350091 3.62694 -7.09914
0.531713 3.80311 -6.95886
0.489445 3.58845 -7.04393
0.48939 3.87632 -6.95863
0.548229 3.87566 -6.90598
0.382066 3.85156 -7.03308
0.516499 3.92318 -6.91751
0.345743 4.35946 -7.10428
0.293873 4.15572 -6.90691
0.724391 3.72187 -6.88328
0.605158 3.81953 -6.87766
0.576188 3.78362 -6.92717
0.706907 3.77479 -6.88544
0.639151 3.77809 -6.9267
0.79166 3.71786 -7.09539
0.616303 3.65565 -6.99085
0.671809 3.5958 -6.94788
1.03282 3.52211 -7.02909
0.930132 3.81643 -6.87635
0.857271 3.73847 -6.85722
0.790857 3.75892 -6.82816
0.981537 3.38452 -6.7777
0.982058 3.3858 -6.78205
1.07325 3.33545 -6.76379
1.03203 3.31467 -6.78084
0.902136 3.48015 -6.83139
0.857354 3.30622 -6.79606
1.02268 3.79694 -6.81
1.08208 3.78026 -6.81507
0.853309 3.7378 -6.82323
0.964185 3.72346 -6.78159
0.716167 4.06735 -7.08625
0.625195 4.07868 -7.04432
0.625195 4.07868 -7.04432
0.799305 3.95191 -6.99987
0.799305 3.95191 -6.99987
0.646795 3.94289 -6.92715
0.714553 3.93437 -6.92668
0.741105 3.8781 -6.87427
0.699037 3.86004 -6.88313
0.631464 3.87573 -6.88508
0.589038 4.35237 -7.22046
0.766309 4.1169 -7.12798
0.730563 4.20402 -7.25925
0.7833 4.17246 -7.17672
0.622118 4.14157 -7.17703
0.693529 4.12679 -7.10356
0.940691 4.10082 -7.20956
1.04379 3.94085 -6.97761
0.881932 3.85071 -6.91539
0.881932 3.85071 -6.91539
0.858196 3.96672 -7.06659
1.0326 3.88606 -6.93054
0.991086 3.86912 -6.9384
0.915457 3.98213 -7.06437
1.01427 4.28577 -7.29181
1.03838 4.22636 -7.23927
1.00811 4.1405 -7.22243
0.881936 4.21524 -7.24074
1.06536 4.17387 -6.98758
1.23941 2.47548 -6.90339
1.1592 2.67548 -6.64676
1.5482 2.38073 -6.8354
1.15259 2.92245 -6.75515
1.32874 2.97142 -6.55027
1.36763 3.24045 -6.59931
1.18156 3.19083 -6.70517
1.31379 3.17367 -6.63427
1.57945 3.2217 -6.38201
1.77216 2.22803 -6.80218
1.77216 2.22803 -6.80218
1.87702 2.39566 -6.65891
1.74017 2.39557 -6.64857
1.8956 2.50242 -6.47478
2.06352 2.27153 -6.73879
2.16276 2.36315 -6.64282
2.01239 2.56304 -6.45292
1.95453 2.7131 -6.40935
2.14599 2.49665 -6.55069
1.66094 2.92076 -6.50488
1.92809 3.1875 -6.32601
2.17493 3.12055 -6.29974
1.15928 3.3366 -6.69565
1.18117 3.79022 -6.75262
1.28889 3.75087 -6.71618
1.28923 3.74798 -6.71321
1.36079 3.73408 -6.72646
1.30599 3.82429 -6.78998
1.26516 3.66276 -6.79192
1.52792 3.47207 -6.52704
1.5603 3.55618 -6.54817
1.40509 3.40265 -6.49776
1.64206 3.54751 -6.51624
1.60591 3.79239 -6.67101
1.50267 3.56759 -6.57029
1.42438 3.68421 -6.80642
1.62446 3.61218 -6.55513
1.19081 3.99578 -7.00196
1.23188 3.84353 -6.84442
1.26453 3.94866 -6.92379
1.2613 4.07322 -7.03973
1.15803 4.33562 -7.24649
1.29021 4.32651 -7.17395
1.22005 4.32114 -7.19587
1.21721 4.31561 -7.19654
1.34161 4.29558 -7.16343
1.13162 4.19226 -7.19709
1.51538 4.02437 -6.89454
1.52934 4.08301 -6.922
1.58984 4.04534 -6.88425
1.38147 3.95503 -6.93277
1.5781 3.99317 -6.89064
1.51353 4.37367 -7.1233
1.46501 4.21458 -7.05706
1.56503 4.13415 -6.971
1.54472 4.28884 -7.04592
1.49676 4.28339 -7.07045
1.49859 4.28304 -7.05376
1.56808 4.22389 -6.99632
1.48512 4.16776 -6.99705
1.53319 4.16216 -6.99649
1.44761 4.12578 -6.99761
1.63262 4.23525 -7.02367
1.38196 4.14058 -7.03667
1.50475 4.22448 -7.04956
1.28991 3.8687 -6.8278
1.36469 3.87028 -6.82101
1.47082 3.91135 -6.82009
1.42687 3.88616 -6.8287
1.72986 3.49285 -6.49327
1.68001 3.38418 -6.51675
1.80279 3.49678 -6.47198
1.84099 3.41265 -6.45093
1.76254 3.35858 -6.40897
1.90526 3.81656 -6.56738
1.91257 3.59764 -6.4815
1.77971 3.59388 -6.54636
1.71859 3.7543 -6.49446
2.02733 3.48257 -6.44937
2.15308 3.4676 -6.42953
2.086 3.51772 -6.30681
1.98657 3.48815 -6.45007
1.95954 3.55252 -6.45044
2.08542 3.34564 -6.44867
2.11536 3.6725 -6.40727
2.12578 3.82965 -6.46954
2.0625 3.8119 -6.5479
1.96657 3.62599 -6.51018
1.6574 4.35386 -7.10616
1.74495 4.28569 -7.0159
1.73659 4.19547 -6.95208
1.71395 4.18529 -7.05508
1.78113 4.15558 -6.89848
1.93109 4.34024 -6.93026
1.99802 4.35691 -6.93638
1.91983 4.32701 -6.94099
1.92327 4.33159 -6.96913
1.93105 4.34028 -6.93
1.66423 3.96874 -6.7718
1.69562 3.88223 -6.70305
1.90525 3.96806 -6.68219
1.79651 3.94841 -6.70142
1.68996 3.8822 -6.70318
2.09644 4.07688 -6.64175
2.11237 3.96348 -6.56262
2.15326 3.88738 -6.46424
2.19816 0.490889 -7.58734
2.21828 0.558603 -7.6672
2.42494 0.760019 -7.56308
2.42494 0.760019 -7.56308
2.37571 0.696498 -7.53241
2.37345 0.695564 -7.55362
2.38221 0.631062 -7.60339
2.38472 1.02476 -7.58278
2.29224 0.985879 -7.51327
2.3166 1.06868 -7.58249
2.60936 0.760066 -7.54107
2.54759 0.760002 -7.52984
2.65937 0.721452 -7.49363
2.55983 0.642569 -7.5479
2.55981 0.810608 -7.54841
2.71823 0.722307 -7.56123
2.50681 0.617007 -7.53087
2.60125 0.608876 -7.5377
2.71812 0.713954 -7.56029
2.59198 0.683704 -7.46729
2.73413 0.957481 -7.52606
2.52457 1.03198 -7.5304
2.59534 0.894561 -7.52908
2.54758 1.091 -7.53017
2.65029 1.06527 -7.46921
2.71279 0.830295 -7.47563
2.96782 0.70131 -7.4766
2.83226 0.765545 -7.4808
2.83226 0.765545 -7.4808
2.77284 0.734692 -7.47489
2.89679 0.71503 -7.45178
2.99013 0.625427 -7.4505
2.85481 0.625274 -7.46351
2.85951 0.625674 -7.50173
2.8508 0.617313 -7.45269
2.85201 0.619749 -7.4632
2.82887 0.695393 -7.45336
2.79831 0.636534 -7.47378
2.97238 0.945013 -7.45039
2.92557 0.877684 -7.46421
2.87642 0.913883 -7.43
2.86623 0.975919 -7.47284
3.12087 0.644889 -7.40514
3.07596 0.684449 -7.46994
3.16983 1.03197 -7.42635
3.09263 0.863878 -7.47773
3.08124 0.858115 -7.47711
3.19903 0.872985 -7.22775
3.19903 0.872985 -7.22775
2.36405 1.30671 -7.45853
2.26017 1.3656 -7.45882
2.45258 1.3179 -7.45728
2.24187 1.29194 -7.46417
2.27573 1.42328 -7.46072
2.62921 1.28424 -7.45572
2.71997 1.27581 -7.43339
2.53068 1.2423 -7.47749
2.62814 1.17507 -7.48704
2.65519 1.343 -7.4048
2.65519 1.343 -7.4048
2.71486 1.22536 -7.45396
2.69328 1.17777 -7.48588
2.69328 1.17777 -7.48588
2.57387 1.16684 -7.53666
2.67436 1.133 -7.49596
2.4669 1.46923 -7.41166
3.00849 1.30156 -7.39999
3.00406 1.09921 -7.47906
2.74062 1.2169 -7.43258
2.74062 1.2169 -7.43258
3.08553 1.24762 -7.38862
3.23433 1.1086 -7.48345
3.14497 1.22242 -7.39517
3.14497 1.22242 -7.39517
3.15016 1.23287 -7.41394
2.42382 1.61816 -7.24636
2.41751 1.53898 -7.32352
2.26613 1.64086 -7.30275
2.29183 1.58242 -7.34593
2.29183 1.58242 -7.34593
2.48256 1.54715 -7.25883
2.63249 1.47151 -7.29002
2.72881 1.51077 -7.28847
2.62454 1.4004 -7.33692
2.62006 1.56962 -7.28526
2.48252 1.42539 -7.30451
2.71777 1.44648 -7.33772
2.21557 1.65578 -7.21227
2.29842 1.72657 -7.28227
2.38144 1.87481 -7.03708
2.37808 1.8711 -7.00947
2.22847 2.06935 -6.88863
2.25597 1.96068 -6.97152
2.28778 2.04419 -6.89347
2.30747 1.96045 -6.94601
2.57321 1.87497 -7.055
2.73023 1.96877 -6.94461
2.63437 2.11086 -6.78705
3.10748 1.31216 -7.30417
3.25012 1.29324 -7.37323
3.15902 1.28406 -7.38455
3.22464 1.23684 -7.37849
3.18143 1.44995 -7.15895
3.12111 1.47413 -7.22959
3.12111 1.47413 -7.22959
3.15838 1.43478 -7.1865
2.91409 1.74698 -7.02679
2.78931 1.80399 -7.02482
3.02947 1.90129 -6.89875
3.14512 1.80372 -6.97872
2.94478 2.07617 -6.67306
3.22783 2.16014 -6.74742
3.42452 0.980839 -7.423
3.41429 0.947896 -7.46493
3.41429 0.947896 -7.46493
3.40035 0.839597 -7.39643
3.82301 1.08222 -7.41536
3.48708 1.0035 -7.21217
3.43655 0.986488 -7.30888
3.72382 1.02018 -7.26959
3.72382 1.02018 -7.26959
3.62545 1.28488 -7.39944
3.56764 1.18442 -7.46001
3.33268 1.24094 -7.3371
3.44692 1.37614 -7.24518
3.52321 1.51038 -7.19037
3.78289 1.29731 -7.32582
3.81302 1.28391 -7.3415
3.61782 1.28395 -7.33747
3.58369 1.38448 -7.27519
3.37055 1.85915 -6.86275
3.35503 1.69221 -7.00176
3.31393 1.74928 -7.02185
3.71475 1.8755 -7.03416
3.71321 1.86798 -6.90569
3.72371 1.74817 -7.06408
3.72913 2.01749 -6.93055
3.79567 1.95489 -6.93466
3.63079 2.00491 -6.87551
3.46977 1.92567 -6.76263
3.3417 1.99318 -6.76651
3.55646 2.01585 -6.82334
3.67411 2.03867 -6.83436
3.67922 2.03487 -6.78588
3.72803 2.00959 -6.81502
4.0342 1.29236 -7.34977
3.92793 1.53301 -7.2148
3.91539 1.49675 -7.2145
3.94856 1.39588 -7.27799
3.95835 1.58046 -7.19279
4.06679 1.43605 -7.36766
4.25752 1.29312 -7.29674
4.19884 1.33068 -7.23895
4.32991 1.23995 -7.08547
4.33901 1.13155 -7.05212
4.2778 1.10936 -7.06031
4.25873 1.44015 -7.13369
4.25065 1.63883 -7.05395
4.08171 1.71663 -7.17585
4.01511 1.7081 -7.1877
3.91418 1.80859 -7.09148
3.96629 1.77911 -7.09829
3.84542 1.89697 -6.91742
3.91073 1.87664 -6.98607
4.24596 1.90962 -6.97871
4.12684 2.07249 -6.93916
4.12868 2.06856 -6.92156
4.16333 2.16456 -6.88571
4.27456 1.99674 -6.90531
4.18081 1.955 -6.98093
4.32654 2.05549 -6.86156
4.22506 2.11146 -6.91646
4.33529 2.1013 -6.80453
4.33586 2.10954 -6.83502
4.37938 2.09686 -6.79991
2.38469 2.31139 -6.60061
2.38469 2.31139 -6.60061
2.44966 2.41458 -6.5395
2.35648 2.42022 -6.54046
2.31173 2.39805 -6.55295
2.24205 2.67626 -6.33441
2.21951 2.58982 -6.41945
2.40746 2.4898 -6.48726
2.65297 2.25168 -6.60406
2.65386 2.25465 -6.67847
2.6785 2.35489 -6.63125
2.69337 2.44336 -6.45101
2.60968 2.64742 -6.30047
2.53646 2.48417 -6.48672
2.49727 2.66271 -6.40222
2.24408 3.15669 -6.31111
2.441 3.12667 -6.35048
2.6726 2.95916 -6.38899
2.69416 3.09276 -6.29355
2.47924 3.15382 -6.30029
2.79433 2.29568 -6.51406
2.8563 2.60087 -6.36565
2.97908 2.53401 -6.39683
3.02359 2.20526 -6.64594
3.02721 2.20132 -6.61188
3.01948 2.41413 -6.45799
3.02711 2.41743 -6.52057
3.19267 2.56749 -6.3952
3.14999 2.60874 -6.29932
3.08462 2.50598 -6.37745
2.25716 3.7225 -6.37291
2.40244 3.58829 -6.32832
2.3731 3.81455 -6.35101
2.22361 3.81554 -6.40887
2.45229 3.8271 -6.34096
2.44338 3.70589 -6.32775
2.27823 3.72707 -6.42039
2.52754 3.36742 -6.37884
2.43096 3.95756 -6.39245
2.43096 3.95756 -6.39245
2.34419 3.90322 -6.40296
2.34178 3.90472 -6.42505
2.40355 3.87074 -6.37474
2.44275 4.07294 -6.46589
2.25285 3.85762 -6.431
2.23742 4.04594 -6.54886
2.26432 4.35567 -6.80848
2.30467 4.33765 -6.74728
2.34823 4.2986 -6.63576
2.238 4.28743 -6.72069
2.26283 4.21118 -6.66205
2.29573 4.22835 -6.69151
2.42836 4.29364 -6.54767
2.35302 4.14262 -6.5028
2.55226 3.94042 -6.35809
2.47644 4.03053 -6.41586
2.64869 3.99095 -6.36217
2.61813 3.89413 -6.33849
2.56407 3.88133 -6.30945
2.50044 4.32052 -6.59857
2.65203 4.18408 -6.42847
2.63546 4.14236 -6.45343
2.67687 4.12128 -6.42378
2.69681 4.20378 -6.39908
2.5616 4.12564 -6.46633
2.61063 4.35626 -6.53682
2.57802 4.2167 -6.44545
2.57872 4.23132 -6.5598
2.6601 4.25427 -6.33252
2.78461 3.34134 -6.31761
2.75311 3.92046 -6.308
2.80939 3.84375 -6.31757
2.79568 4.01029 -6.34643
2.92644 4.34302 -6.38365
2.85601 4.23099 -6.32381
2.8045 4.20307 -6.31742
3.54714 2.32834 -6.61862
3.54974 2.30883 -6.63935
3.52736 2.23496 -6.67973
3.52736 2.23496 -6.67973
3.53476 2.43475 -6.56389
3.42614 2.46891 -6.7231
3.47612 2.59821 -6.37718
3.36802 2.47193 -6.50351
3.58485 2.43893 -6.57729
3.72603 2.33506 -6.61457
3.60342 2.22628 -6.75993
3.58305 2.36706 -6.60478
3.83222 2.34549 -6.69383
3.76737 2.30634 -6.69574
3.72673 2.22656 -6.73451
3.58295 2.43424 -6.5626
3.79178 2.49334 -6.51679
3.76289 2.6744 -6.47884
3.76289 2.6744 -6.47884
3.70212 2.86372 -6.35235
3.81767 2.82227 -6.42465
3.76523 2.80518 -6.37562
3.88496 2.4466 -6.67055
4.07689 2.28954 -6.7537
3.9177 2.38109 -6.6477
3.88839 2.30369 -6.71508
3.89394 2.31046 -6.75954
3.96564 2.28709 -6.7662
4.06783 2.21742 -6.81448
4.06891 2.21872 -6.80408
4.03967 2.55768 -6.61786
3.86568 2.67659 -6.39118
4.05833 2.51443 -6.56192
4.01737 2.63826 -6.52234
4.07695 2.57713 -6.55673
4.12184 2.3039 -6.76401
4.12184 2.3039 -6.76401
4.11899 2.23999 -6.83706
4.19753 2.44887 -6.66659
4.22699 2.20175 -6.78078
4.13023 2.57154 -6.59496
4.31753 2.54623 -6.56153
4.08958 2.96128 -6.30882
3.99991 2.7739 -6.4894
3.99991 2.7739 -6.4894
3.94773 2.90167 -6.29247
4.02346 2.96599 -6.38175
3.94064 2.89036 -6.38545
4.24731 2.86938 -6.35382
4.23152 2.83185 -6.38875
2.24353 2.71857 -6.277
2.24353 2.71857 -6.277
2.24178 3.15403 -6.2918
2.56738 3.27838 -6.23475
2.62386 3.13998 -6.26629
2.72206 3.23199 -6.24461
2.66764 3.22763 -6.23185
2.66764 3.22763 -6.23185
2.90293 3.17594 -6.22114
2.8918 3.1403 -6.23053
2.81733 3.11127 -6.2675
2.85868 3.28242 -6.24292
2.93871 3.19834 -6.22002
2.93871 3.19834 -6.22002
2.99494 3.16457 -6.18763
3.16188 2.86818 -6.19585
3.18474 2.85785 -6.29042
3.01523 3.25689 -6.20902
2.73355 3.36159 -6.20953
2.71741 3.32426 -6.268
2.72207 3.50324 -6.24434
2.64226 3.39095 -6.1928
2.70747 3.67048 -6.17006
2.4983 3.63753 -6.24797
2.64396 3.67379 -6.24593
2.69081 3.85575 -6.2728
2.81824 3.43049 -6.22228
2.93717 3.55013 -6.16789
2.99234 3.52792 -6.16674
2.80977 3.42486 -6.22242
2.89422 3.3853 -6.18915
2.79833 3.71229 -6.19091
2.77849 3.71843 -6.25081
2.77849 3.71843 -6.25081
3.049 3.51913 -6.13819
3.049 3.51913 -6.13819
3.24108 3.4574 -6.1212
3.22319 3.34812 -6.14146
3.11081 3.34024 -6.16499
3.20922 3.51046 -6.11415
3.22616 3.50494 -6.11427
3.0829 3.48567 -6.14439
3.0829 3.48567 -6.14439
3.05784 3.47761 -6.18744
3.03491 3.31549 -6.19012
3.22992 3.39888 -6.13166
3.22992 3.39888 -6.13166
3.17334 3.70362 -6.06573
3.26513 3.56654 -6.13239
3.26466 3.68233 -6.08806
3.25469 3.63595 -6.11014
3.00006 4.09854 -6.2296
2.89846 4.03461 -6.26247
2.98644 3.92545 -6.24029
2.85837 4.15619 -6.21945
2.95262 4.16312 -6.24877
2.92474 4.1139 -6.18535
2.80895 4.19875 -6.2762
3.04114 4.04817 -6.21843
3.12463 4.02222 -6.23526
3.14003 4.30628 -6.18907
3.28302 4.33792 -6.27238
3.36731 3.21203 -6.18289
3.47411 3.23121 -6.13102
3.35986 3.17276 -6.16125
3.64005 2.814 -6.26213
3.7308 3.20603 -6.12665
3.66467 3.1779 -6.20227
3.70497 3.16797 -6.10373
3.72031 3.22559 -6.12704
3.82247 3.06502 -6.21424
3.82247 3.06502 -6.21424
4.08856 3.086 -6.22373
3.97027 3.13413 -6.0436
4.25202 2.95519 -6.21853
4.13209 3.19744 -6.12657
4.19697 3.05307 -6.26037
4.19541 3.04673 -6.13928
3.53134 3.47894 -6.18289
3.39172 3.36282 -6.15953
3.2885 3.72874 -6.10228
3.37021 3.6278 -6.08991
3.37872 3.62492 -6.09014
3.35283 3.59424 -6.08765
3.31432 3.56522 -6.11266
3.3452 3.66129 -6.08837
3.75639 3.49926 -6.11221
3.78013 3.49104 -6.09927
3.78013 3.49104 -6.09927
3.72248 3.43725 -6.18291
3.74264 3.30361 -6.10129
3.70592 3.39299 -6.09485
3.68828 3.74166 -6.05135
3.73874 3.67733 -6.0322
3.671 3.58927 -6.0228
3.66375 3.56223 -6.0974
3.35024 3.86215 -6.06687
3.29089 4.01939 -6.23422
3.48798 3.87751 -5.98091
3.34694 4.36684 -6.02592
3.30743 4.34832 -6.0492
3.45555 4.18195 -6.18018
3.57142 4.01999 -6.04418
3.82094 3.85885 -6.02711
3.7244 3.90918 -6.0002
3.84609 3.43099 -6.09663
4.08753 3.38674 -6.11758
3.92082 3.67497 -6.05759
3.91721 3.66631 -6.02898
4.1751 3.29778 -6.07289
4.35332 3.52565 -6.12407
4.26974 3.33472 -6.10149
0.225929 5.19273 -7.4292
0.233507 5.14006 -7.42965
0.132725 5.24891 -7.42768
0.26396 5.22373 -7.41225
0.143831 5.29613 -7.39756
0.18514 5.23205 -7.4287
0.18514 5.23205 -7.4287
0.542005 5.1831 -7.4558
0.341579 5.12325 -7.45632
0.441819 5.11595 -7.46351
0.461637 5.15081 -7.43997
0.461637 5.15081 -7.43997
0.536067 5.03073 -7.47148
0.524791 4.96659 -7.50305
0.408806 5.23303 -7.43781
0.41712 5.22598 -7.38996
0.422768 5.22323 -7.38945
0.532341 5.22601 -7.39636
0.303183 5.2653 -7.39816
0.80003 4.88053 -7.52436
0.750439 4.77717 -7.52663
0.625149 4.89713 -7.50824
0.816913 4.75034 -7.53128
0.807864 4.81283 -7.54436
0.883547 4.60726 -7.49973
0.922816 4.46418 -7.42737
1.05881 4.58762 -7.46928
0.930516 4.42173 -7.42774
1.05831 4.38349 -7.38674
0.985421 4.61543 -7.44789
1.07548 4.91345 -7.52214
1.07532 4.91354 -7.52306
0.953379 4.87455 -7.55106
0.958396 4.87161 -7.50603
0.86618 4.84152 -7.60465
0.983756 4.78795 -7.55077
0.957116 4.83292 -7.58328
1.05013 4.74289 -7.56453
0.966747 4.73846 -7.60845
0.96725 4.74444 -7.56916
1.09842 4.66386 -7.50198
0.749826 5.07259 -7.48133
0.582181 5.05063 -7.49225
0.709394 5.02888 -7.52256
0.791274 5.01402 -7.4922
0.796428 4.97206 -7.51281
0.633425 5.1062 -7.4601
0.761217 4.93848 -7.49202
0.766909 4.93563 -7.49207
0.933663 5.04718 -7.44186
0.85829 5.02213 -7.44004
1.09185 4.9803 -7.46948
0.833178 5.14792 -7.43828
1.0817 5.06117 -7.44736
0.850298 4.98262 -7.51642
1.04201 5.12915 -7.45682
0.264996 4.46826 -7.10474
0.189801 4.56365 -7.08274
0.18416 4.56094 -7.08354
0.249812 4.57872 -7.10526
0.133689 4.53585 -7.02334
0.152633 4.41783 -7.05472
0.0731092 4.82473 -7.12516
0.199588 4.91066 -7.27367
0.0960908 4.73982 -7.06206
0.374818 4.58859 -7.19752
0.41642 4.46113 -7.16508
0.416279 4.63742 -7.1672
0.384585 4.52795 -7.13894
0.355867 4.47709 -7.1252
0.358237 4.47842 -7.14538
0.548987 4.44448 -7.19903
0.52485 4.58361 -7.23019
0.449447 4.57074 -7.18655
0.334094 4.54487 -7.15678
0.333358 4.54579 -7.15048
0.316328 4.52203 -6.95159
0.28261 4.43597 -7.10461
0.333176 4.85247 -7.25135
0.376561 4.81807 -7.27329
0.42518 4.8865 -7.36792
0.306243 4.76985 -7.22087
0.37484 4.74435 -7.19939
0.0665255 5.07088 -7.26365
0.0654428 5.07028 -7.27349
0.0921034 4.98702 -7.23961
0.164091 4.96936 -7.25179
0.226363 5.05138 -7.3024
0.0670835 5.2105 -7.3306
0.240445 5.43251 -7.32711
0.243265 5.42696 -7.32641
0.0250633 5.41888 -7.35624
0.0248247 5.42028 -7.35703
0.0914984 5.36965 -7.32182
0.399543 4.96284 -7.37101
0.331806 5.33223 -7.36883
0.537563 5.27339 -7.37602
0.308082 5.26482 -7.35452
0.732627 4.54683 -7.32495
1.0153 4.41552 -7.36618
0.974283 4.41062 -7.16273
0.733117 5.1805 -7.36416
0.742053 4.93979 -7.37486
0.941625 5.20948 -7.35209
0.849508 5.21377 -7.34317
0.127175 5.67448 -7.18176
0.0844503 5.65848 -7.24154
0.149861 5.62174 -7.22016
0.191892 5.58885 -7.27318
0.179021 5.51068 -7.29551
0.0703107 5.4774 -7.31598
0.226145 5.95474 -6.9906
0.157065 5.90453 -7.00222
0.526331 5.73861 -7.15627
0.300208 5.59971 -7.24959
0.50831 6.0021 -6.97031
0.360174 5.97166 -7.00186
0.522245 5.8135 -7.10417
0.533169 5.91959 -7.01286
0.0331386 6.19835 -6.91334
0.15824 6.14008 -6.93154
0.215587 6.06342 -6.94964
0.215587 6.06342 -6.94964
0.0998502 6.02439 -7.07138
0.166626 6.26054 -6.85973
0.121176 6.2328 -6.85405
0.26482 6.13843 -6.89863
0.216185 6.10623 -6.94385
0.272189 6.02465 -6.9804
0.199733 6.21921 -6.93251
0.00886615 6.34189 -6.84607
0.00838597 6.34387 -6.84201
0.486395 6.12074 -6.85336
0.39962 6.02869 -7.03194
0.224713 6.47216 -6.715
0.266309 6.30514 -6.79999
0.00881929 6.43644 -6.80441
0.175603 6.36643 -6.80372
0.175603 6.36643 -6.80372
0.416144 6.41815 -6.73399
0.649493 5.68124 -7.16
0.698952 5.56865 -7.23
0.583155 5.5615 -7.19308
0.659341 5.99621 -6.94839
0.624499 5.93898 -7.00565
0.634152 5.77703 -7.09636
0.899783 5.62154 -7.26056
0.893646 5.62165 -7.20831
1.02597 5.94015 -6.9391
0.848914 5.91688 -6.9452
0.944489 5.89889 -7.00791
1.01567 5.84643 -7.00556
1.02142 5.79889 -7.05883
1.07937 5.88486 -6.99992
1.06538 5.99449 -6.92708
0.615778 6.14779 -6.83971
0.640444 6.05434 -6.87284
1.08178 6.12529 -6.8907
0.92346 6.07073 -6.86703
0.729663 6.28731 -6.758
0.698195 6.26238 -6.7729
0.565735 6.23771 -6.8013
0.715685 6.20723 -6.83051
0.79042 6.09537 -6.82275
0.655526 6.18765 -6.83188
0.798372 6.47384 -6.64874
0.798372 6.47384 -6.64874
0.632695 6.46571 -6.7078
1.08967 6.29049 -6.73757
0.869639 6.2785 -6.72835
0.890001 6.26602 -6.83175
0.915836 6.15366 -6.80217
0.915836 6.15366 -6.80217
0.873207 6.37039 -6.69666
1.19477 4.6093 -7.40769
1.27497 4.62522 -7.43643
1.23367 4.60009 -7.43264
1.31022 4.75114 -7.56399
1.23301 4.66613 -7.46795
1.14742 4.91621 -7.51135
1.31983 4.66015 -7.43568
1.27893 4.86222 -7.44644
1.1617 4.81844 -7.54282
1.23548 4.66075 -7.4903
1.23419 4.66782 -7.47888
1.48312 4.58497 -7.44233
1.49144 4.64734 -7.3921
1.37533 4.6764 -7.51281
1.63432 4.8842 -7.51407
1.62849 4.87416 -7.5145
1.55735 4.79038 -7.51955
1.52789 4.77084 -7.54074
1.37499 4.7124 -7.52464
1.52533 4.69328 -7.48102
1.55019 4.89643 -7.51422
1.48948 4.81244 -7.51951
1.35072 4.99949 -7.47846
1.13308 5.0246 -7.43607
1.22517 4.96699 -7.44714
1.25601 4.9409 -7.46791
1.4804 5.07254 -7.46583
1.45878 5.04195 -7.49231
1.45872 5.03862 -7.4974
1.56629 4.97225 -7.50867
1.45028 5.22814 -7.54885
1.45028 5.22814 -7.54885
1.70915 4.90482 -7.5342
1.68167 4.838 -7.53836
1.68454 4.84982 -7.56283
1.89196 4.84402 -7.40596
1.89196 4.84402 -7.40596
1.68156 4.824 -7.53794
1.68403 4.82065 -7.51546
1.65359 4.74804 -7.5184
1.90843 5.0707 -7.41446
1.90906 5.06647 -7.41998
1.85653 4.93198 -7.42201
1.78403 5.11821 -7.52907
1.85021 5.1547 -7.40904
1.69192 4.97096 -7.47167
1.76642 5.04983 -7.39186
1.73384 5.11337 -7.49394
1.91734 5.20946 -7.42498
1.9755 5.07939 -7.40458
1.95009 5.0331 -7.41915
1.98385 5.088 -7.45303
1.09875 4.42365 -7.34622
1.50515 4.48449 -7.27611
1.45156 4.45868 -7.21653
1.64607 4.38521 -7.15059
1.70381 4.42695 -7.13006
1.707 4.40888 -7.07774
1.86034 4.46016 -7.08945
1.88376 4.72097 -7.36114
1.87212 4.6557 -7.28635
2.10725 4.63958 -7.12793
1.97203 4.43736 -7.05322
1.97378 4.44164 -7.06751
2.1768 4.42724 -6.89537
2.10443 4.52585 -6.93894
2.11393 4.52356 -6.85135
2.06496 4.56322 -7.04789
2.12408 4.84154 -7.19769
2.06574 4.84229 -7.24755
1.99968 4.8425 -7.27579
1.99519 4.84647 -7.3169
2.14137 4.71626 -7.23748
2.07138 4.71107 -7.22039
1.96621 4.80488 -7.2912
1.96577 4.80428 -7.21599
2.01651 4.73377 -7.30617
2.09308 4.78067 -7.18946
1.89681 5.13335 -7.38092
1.89121 5.37642 -7.31763
1.96642 4.92716 -7.32169
2.10618 5.06964 -7.22168
2.00827 5.27566 -7.34274
1.94925 5.45907 -7.25781
1.95025 5.33706 -7.30636
2.05479 5.32454 -7.21057
1.99855 5.31154 -7.28533
1.99855 5.31154 -7.28533
2.00841 5.23366 -7.34388
2.00142 5.2275 -7.28645
2.10617 5.25181 -7.22013
1.15772 5.73569 -7.14642
1.33527 5.71527 -7.09287
1.3487 5.93787 -6.98002
1.19312 5.7938 -7.10074
1.24687 5.99072 -6.96692
1.26592 5.9325 -6.99791
1.27864 5.86603 -7.05884
1.36439 5.84984 -7.1001
1.32905 5.92189 -7.03984
1.32905 5.92189 -7.03984
1.52404 5.81421 -7.15662
1.3823 5.80228 -7.18582
1.4944 5.86662 -7.09132
1.49869 5.86317 -7.05239
1.3983 5.80773 -7.09234
1.3983 5.80773 -7.09234
1.53552 5.91676 -7.07753
1.1908 6.17387 -6.84299
1.56545 6.18308 -6.89081
1.44798 6.17027 -6.84162
1.61141 6.111 -6.95346
1.54046 6.07989 -6.99262
1.61434 6.1788 -6.86277
1.6179 6.1719 -6.89373
1.54863 6.13767 -6.92092
1.63725 6.26066 -6.84026
1.63967 6.2667 -6.85994
1.48178 6.17466 -6.88879
1.48178 6.17466 -6.88879
1.38589 6.10457 -6.89191
1.12285 6.22642 -6.80131
1.12317 6.22439 -6.7986
1.57223 6.34074 -6.77144
1.56919 6.3468 -6.79856
1.86608 5.52564 -7.21799
1.90817 5.48011 -7.26983
1.91768 5.66486 -7.08868
2.10453 5.66456 -7.06473
2.17273 5.62237 -6.9727
2.01899 5.58893 -7.06603
1.9947 5.69796 -7.055
2.10974 5.65304 -7.04383
2.17255 5.97907 -6.92342
2.13031 6.00617 -6.86293
1.98168 5.93793 -6.99296
2.18308 5.88711 -6.94875
2.18308 5.88711 -6.94875
1.78959 6.19188 -6.89052
1.68782 6.22727 -6.85797
1.73931 6.17799 -6.84351
1.67136 6.17737 -6.88959
1.76513 6.07125 -6.955
1.73926 6.25354 -6.84401
1.73947 6.11213 -6.90781
1.8983 6.19589 -6.86906
2.07821 6.05667 -6.87526
2.01311 6.02688 -6.93863
2.03121 6.07974 -6.94179
1.66397 6.49791 -6.67507
1.74405 6.46066 -6.72265
1.79722 6.40807 -6.74704
1.79419 6.40187 -6.72138
1.80543 6.32246 -6.71264
1.69878 6.38772 -6.74537
1.70675 6.396 -6.8119
1.90274 6.29833 -6.74258
1.73502 6.49029 -6.67037
1.77242 6.37906 -6.79399
1.83382 6.31534 -6.75421
1.68832 6.3018 -6.78682
1.68832 6.3018 -6.78682
1.91035 6.55274 -6.54569
2.16358 6.21079 -6.72971
2.03065 6.20879 -6.741
2.02407 6.19838 -6.80177
2.13744 6.38323 -6.62364
2.15001 6.44384 -6.56113
2.18731 6.42215 -6.56105
2.18504 6.41279 -6.54208
2.08529 6.55497 -6.51088
2.15053 6.51271 -6.49061
2.04554 6.42019 -6.5473
0.116205 6.58397 -6.66686
0.253834 7.1086 -6.65655
0.0108386 7.00322 -6.69817
0.474019 7.07201 -6.58105
0.473948 7.08157 -6.56666
0.0504018 7.21414 -6.60648
0.038716 7.21026 -6.70928
0.0165535 7.20077 -6.80382
0.250543 7.45804 -6.63503
0.0835218 7.61508 -6.69148
0.216338 7.59668 -6.63098
0.149634 7.48949 -6.63573
0.374044 7.34799 -6.57499
0.40341 7.1722 -6.60686
0.4658 7.37988 -6.62539
0.40942 7.63844 -6.55402
0.42955 7.60954 -6.50917
0.42955 7.60954 -6.50917
0.782203 6.69044 -6.5917
0.748327 6.64002 -6.58418
0.813725 6.59011 -6.60558
0.74923 6.57372 -6.63412
1.03129 6.66932 -6.59191
0.906798 6.66481 -6.56239
0.661589 7.48736 -6.55352
0.649769 7.45282 -6.50022
0.705887 7.49305 -6.55325
0.177962 7.77129 -6.6353
0.157993 7.81027 -6.629
0.240475 7.72114 -6.61395
0.00887014 7.71867 -6.65748
0.265903 7.83815 -6.61419
0.0331601 7.78199 -6.65435
0.238184 7.70438 -6.6356
0.00833485 7.95688 -6.60963
0.458302 7.73983 -6.58591
0.41954 7.71657 -6.6223
0.33237 7.77978 -6.58208
0.332741 7.78211 -6.64838
0.480048 7.90885 -6.51127
0.35011 7.88757 -6.56164
0.538796 8.00874 -6.45987
0.0338588 8.23368 -6.51251
0.271462 8.28653 -6.50179
0.330284 8.24136 -6.48049
0.385137 8.29691 -6.45918
0.615276 7.81126 -6.51142
0.592382 7.92747 -6.45783
0.71736 7.7774 -6.50052
0.681294 8.03594 -6.42755
0.633058 7.99754 -6.46866
0.698691 7.93773 -6.42809
1.22997 7.48548 -6.61544
1.83022 6.56521 -6.63173
1.72186 6.56564 -6.66802
1.90022 6.75679 -6.45411
1.89652 6.66418 -6.51523
1.86261 6.70338 -6.52441
1.81952 6.75111 -6.52462
1.87401 6.82539 -6.45091
1.91861 7.02045 -6.40845
1.83078 7.04432 -6.49355
2.16345 6.57388 -6.46957
2.05868 6.76621 -6.42081
1.96799 6.75527 -6.44294
1.97008 6.74904 -6.42391
2.04658 6.61481 -6.56169
2.00097 6.7085 -6.48165
2.00097 6.7085 -6.48165
2.14406 6.68212 -6.419
2.14482 6.67741 -6.41213
2.19101 6.63223 -6.44759
2.06196 6.82495 -6.44814
1.93701 7.06628 -6.38072
2.03713 6.92613 -6.40569
2.11981 7.05822 -6.4103
2.01187 6.97421 -6.38383
2.09343 6.91636 -6.37511
2.05604 6.87769 -6.40001
2.07721 7.10471 -6.42859
2.00564 7.09858 -6.39668
1.95699 6.94807 -6.42909
2.12847 6.9856 -6.45135
2.123 6.97565 -6.40578
2.19194 7.08175 -6.39583
1.85357 7.33203 -6.47198
1.77574 7.31805 -6.47231
1.77075 7.58248 -6.44889
2.15345 7.19559 -6.47339
2.15323 7.18374 -6.42058
2.13459 7.25376 -6.47935
2.05097 7.19132 -6.42008
2.10393 7.19585 -6.49865
2.10393 7.19585 -6.49865
1.92134 7.28449 -6.4724
2.0686 7.23989 -6.47983
1.98916 7.3169 -6.40774
2.0686 7.53923 -6.48082
1.99425 7.59176 -6.44945
1.6292 7.87415 -6.37131
1.58703 7.87164 -6.45294
1.63655 8.1849 -6.45375
1.46375 7.99176 -6.55825
1.60432 8.25804 -6.47534
1.60427 8.2528 -6.47569
1.87101 7.88982 -6.44886
1.90107 7.80165 -6.45051
1.9041 7.81084 -6.47513
1.91282 7.92789 -6.46451
1.83846 7.84599 -6.4299
1.72931 7.88384 -6.45546
1.84099 7.75974 -6.45153
1.9127 8.1335 -6.48336
1.69151 8.12681 -6.48425
