ply
format ascii 1.0
comment VCGLIB generated
element vertex 1068
property float x
property float y
property float z
property uchar red
property uchar green
property uchar blue
property uchar alpha
element face 0
property list uchar int vertex_indices
end_header
0.6105617 0.4187941 -11.41674 18 23 26 255 
-1.866606 1.263008 -12.50111 5 15 25 255 
-1.866606 1.263008 -12.50111 5 15 25 255 
-1.0245 1.854973 -12.85951 4 13 22 255 
1.662088 -1.298123 -12.23699 100 100 100 255 
0.2354446 3.339931 -12.50066 22 22 24 255 
-0.2946071 -0.9380964 -12.29618 109 109 108 255 
-2.422885 -0.1520503 -12.81119 151 153 155 255 
0.0856859 -1.788542 -12.12609 108 115 121 255 
1.063672 1.460375 -11.82544 1 4 10 255 
0.007142014 2.661949 -12.60438 105 112 118 255 
1.249326 1.175997 -11.61743 10 14 18 255 
-0.2700828 -2.514938 -12.22547 136 137 138 255 
0.0932378 1.201064 -11.939 3 8 15 255 
-2.249461 -0.9053964 -12.6102 65 75 78 255 
-1.001661 -0.3948754 -12.48979 128 128 128 255 
-3.966643 -0.4766021 -12.98171 39 48 57 255 
-3.015271 1.006109 -12.80969 138 139 142 255 
0.08719986 3.31161 -12.43304 155 155 155 255 
2.007293 0.8243624 -12.24559 105 105 105 255 
-3.455401 -1.219606 -12.49459 72 79 85 255 
-0.3948151 -2.379646 -12.25809 120 128 136 255 
-4.349751 -1.219568 -13.23105 115 125 131 255 
-2.707682 1.055503 -12.58253 22 36 46 255 
1.793717 1.604191 -11.91805 120 129 135 255 
1.793717 1.604191 -11.91805 120 129 135 255 
-1.616757 -1.665488 -12.37875 148 151 152 255 
-2.925461 -0.830626 -12.78534 40 51 62 255 
1.652237 1.741503 -11.96555 12 16 23 255 
-4.548463 3.322875 -13.36477 65 74 80 255 
2.049043 -2.868642 -12.31009 119 118 114 255 
-2.571263 -0.1409385 -12.81662 156 156 157 255 
-2.350016 1.872288 -12.85965 15 24 35 255 
-0.4652239 0.6542755 -11.8916 9 19 26 255 
2.165863 2.061789 -12.26414 141 144 145 255 
-1.155693 3.170473 -12.64429 112 117 121 255 
-0.4903465 1.00997 -12.06508 4 12 22 255 
-0.4903465 1.00997 -12.06508 4 12 22 255 
-1.714044 -1.156655 -12.60971 114 119 122 255 
-1.714044 -1.156655 -12.60971 114 119 122 255 
-2.750208 -1.02923 -12.59218 94 107 112 255 
-0.3614046 -2.697139 -12.43796 82 83 83 255 
-0.152109 1.556746 -12.30078 4 12 21 255 
0.1931573 2.151691 -12.42061 34 41 53 255 
0.2200694 2.599615 -12.46642 140 142 146 255 
-0.4637824 0.2741305 -11.85227 121 123 128 255 
0.4293191 1.568752 -12.08244 1 8 15 255 
0.04195474 -2.528788 -12.14127 61 62 62 255 
0.04195474 -2.528788 -12.14127 61 62 62 255 
-2.218882 1.670715 -12.73469 24 33 40 255 
0.2313891 -2.359683 -11.98551 61 74 79 255 
0.398195 0.06606206 -11.38215 128 128 128 255 
0.4078954 -1.313547 -11.97878 61 68 72 255 
-0.006225402 -0.3383517 -11.73695 139 141 140 255 
0.8470006 -2.718863 -12.36687 135 135 135 255 
-2.997214 -0.9104486 -12.66872 48 59 68 255 
-1.467161 1.100792 -12.34718 16 26 35 255 
1.429575 1.884502 -12.10184 47 54 64 255 
-3.91977 -1.350632 -12.97496 138 140 143 255 
0.7131372 0.7618768 -11.49583 14 18 24 255 
0.7131372 0.7618768 -11.49583 14 18 24 255 
-2.252148 1.34258 -12.53755 137 143 148 255 
-0.3239107 2.903889 -12.45792 121 124 123 255 
-2.779897 -0.05029371 -12.88162 153 154 156 255 
-0.2130784 2.631131 -12.68826 135 140 143 255 
-3.260704 0.9509144 -13.04792 149 149 151 255 
-3.346724 -0.8111802 -12.59181 49 58 67 255 
0.1090168 -1.945165 -12.05189 88 95 101 255 
-1.287713 1.796678 -12.84606 25 36 46 255 
-1.403458 0.7959356 -12.18209 16 26 35 255 
-1.403458 0.7959356 -12.18209 16 26 35 255 
0.02919051 1.829482 -12.35227 10 19 27 255 
0.02979937 1.829744 -12.35802 10 19 27 255 
0.9608307 1.508287 -11.82913 1 6 12 255 
-1.291831 0.606701 -12.16087 132 135 137 255 
0.4079557 2.442625 -12.45314 121 130 137 255 
-0.1879883 -2.504468 -12.182 132 133 135 255 
-2.370428 -0.1499962 -12.79176 71 78 80 255 
-3.008184 0.3091017 -12.92871 147 148 150 255 
-0.3573857 -1.781159 -12.33531 105 114 121 255 
-3.372463 1.207275 -13.11619 31 40 47 255 
-0.4692203 -2.186269 -12.19223 122 130 136 255 
1.498888 1.556976 -11.89402 10 18 26 255 
0.7665234 3.626035 -12.59213 140 143 144 255 
1.517847 2.132502 -12.30854 31 37 42 255 
1.517847 2.132502 -12.30854 31 37 42 255 
0.8996192 2.134485 -12.25831 34 41 52 255 
-0.9564664 1.39733 -12.45379 18 28 38 255 
-2.505053 -1.080653 -12.46826 120 124 130 255 
-0.3696556 -1.560973 -12.39325 90 97 102 255 
-0.3692037 -1.562161 -12.39842 90 97 102 255 
-1.124312 -1.789701 -12.43804 127 134 136 255 
-1.019031 -2.164289 -12.27162 124 132 137 255 
-2.122271 1.707666 -12.78706 18 27 37 255 
0.8199688 -1.959114 -11.66681 118 123 127 255 
-0.3024246 2.977808 -12.40608 135 139 142 255 
-2.69355 0.8037417 -12.54794 121 129 133 255 
-0.3885871 1.334892 -12.21397 3 11 20 255 
-0.8286835 2.729655 -12.79722 58 61 63 255 
-3.297892 -0.7196109 -12.70478 132 137 137 255 
-3.123021 -0.6839083 -12.76192 67 76 85 255 
-0.715922 3.197894 -12.33834 73 77 82 255 
-0.5438341 3.337137 -12.38634 78 83 90 255 
-0.5438341 3.337137 -12.38634 78 83 90 255 
0.2320331 1.92958 -12.27912 76 89 98 255 
1.912388 -0.02465118 -12.24037 128 127 131 255 
1.912388 -0.02465118 -12.24037 128 127 131 255 
0.02421365 -1.85579 -12.12387 105 112 118 255 
-1.439305 -0.466014 -12.67804 86 89 88 255 
2.019621 -2.788108 -12.26839 112 110 104 255 
-1.997895 -0.2781535 -12.74222 141 141 141 255 
-1.997895 -0.2781535 -12.74222 141 141 141 255 
2.068415 -2.805837 -12.26245 108 107 102 255 
0.7786499 -1.850842 -11.70636 72 81 88 255 
-2.513217 -1.547501 -12.20042 156 157 159 255 
0.5530346 3.401897 -12.61258 147 149 150 255 
0.5403792 0.2520964 -11.38253 152 153 153 255 
-0.4474099 -1.810132 -12.33514 101 110 116 255 
-1.559878 1.005949 -12.31063 17 25 36 255 
-2.936489 -1.221024 -12.43879 132 136 139 255 
-0.4504741 4.01658 -12.75424 113 122 131 255 
-1.363587 -1.765484 -12.41215 59 67 75 255 
-1.362711 -1.768278 -12.43544 59 67 75 255 
-0.1705827 -1.031573 -12.26002 141 142 144 255 
-3.425168 -0.9419176 -12.58538 52 64 70 255 
0.4041654 3.408069 -12.55924 91 98 105 255 
-0.9383982 1.813824 -12.8159 5 13 23 255 
-2.740019 -1.089365 -12.57297 38 57 73 255 
-4.061929 -1.110843 -13.00268 106 116 125 255 
-4.064747 -1.112536 -13.03299 106 116 125 255 
-2.720382 0.7562362 -12.58867 97 103 111 255 
-1.390488 -1.728975 -12.44359 138 143 145 255 
-1.48212 0.8190333 -12.2028 42 52 62 255 
1.456608 1.699254 -11.9786 7 13 20 255 
-0.4551919 -2.587549 -12.35226 107 112 111 255 
-0.4551919 -2.587549 -12.35226 107 112 111 255 
-4.742146 3.264529 -13.5111 156 158 159 255 
-1.300281 1.517265 -12.6148 20 30 39 255 
-1.300281 1.517265 -12.6148 20 30 39 255 
-2.836478 0.4310449 -12.7344 144 147 148 255 
-2.836478 0.4310449 -12.7344 144 147 148 255 
-0.9576095 3.199118 -12.46817 109 116 122 255 
-3.641627 -1.447163 -12.82223 141 142 144 255 
-2.255633 1.640678 -12.71531 124 131 137 255 
-0.07189519 0.1278695 -11.54787 131 131 131 255 
-4.303015 -1.282881 -13.20082 114 124 133 255 
-1.175137 1.762786 -12.81328 20 32 42 255 
-1.454404 3.132976 -12.86781 41 42 44 255 
0.1483305 2.23179 -12.45556 70 83 92 255 
0.8819602 3.660298 -12.61049 12 16 17 255 
-0.5729674 0.1455281 -11.91573 129 130 133 255 
-3.916296 -0.138671 -13.01236 130 136 139 255 
-2.370757 -0.7704728 -12.70782 90 103 112 255 
-0.5958307 3.05044 -12.49212 134 138 142 255 
-2.729286 0.3643115 -12.72122 93 97 99 255 
-0.9387982 0.5464427 -11.991 144 147 147 255 
-0.9387982 0.5464427 -11.991 144 147 147 255 
-1.48245 3.350856 -12.87319 16 20 25 255 
-3.745883 -0.3732629 -12.89414 39 51 69 255 
1.647673 -1.499671 -12.18283 122 123 125 255 
-0.5276625 2.954797 -12.51853 61 67 69 255 
0.03765292 0.7757879 -11.76365 12 17 24 255 
-1.433054 1.916222 -12.96048 11 20 29 255 
0.3720166 -2.32033 -11.90658 52 56 56 255 
-1.603518 1.266061 -12.45152 4 14 22 255 
-3.192065 -2.21406 -13.08688 147 147 147 255 
1.693638 -1.641857 -12.17779 140 141 143 255 
-0.9683032 1.763336 -12.76243 20 31 40 255 
0.2452815 -0.270409 -11.5191 59 61 61 255 
-0.09056833 0.05276471 -11.61872 132 132 132 255 
0.6202771 1.502626 -11.92991 51 61 69 255 
0.6202771 1.502626 -11.92991 51 61 69 255 
-3.514523 -1.354375 -12.62817 100 102 101 255 
0.006190429 1.951938 -12.46064 10 18 28 255 
-3.383627 -1.298279 -12.44667 112 114 119 255 
-3.053489 -1.280006 -12.29354 89 92 94 255 
-1.040216 1.097399 -12.25615 30 43 52 255 
1.417917 -1.983159 -11.92756 65 70 74 255 
0.359553 1.857384 -12.21549 71 83 92 255 
-1.279224 1.210252 -12.37551 7 16 26 255 
-1.507707 -2.291183 -12.30305 136 139 141 255 
-0.05495243 0.2037723 -11.52909 114 118 121 255 
-0.8727137 -3.016623 -12.90522 138 138 138 255 
-1.036107 -2.118451 -12.29249 68 78 85 255 
-1.575707 3.142991 -12.93981 46 48 48 255 
-1.114903 4.031935 -12.85848 26 32 38 255 
-0.07743651 1.61286 -12.31544 2 8 18 255 
-0.3888555 -1.981853 -12.2658 111 120 125 255 
-0.08300692 2.264603 -12.57996 87 101 107 255 
-4.283234 -1.158111 -13.20304 45 54 65 255 
-1.257514 4.014589 -12.89631 64 71 77 255 
-2.842252 -1.096177 -12.58032 42 50 56 255 
0.1665652 0.5865442 -11.5558 10 13 19 255 
-0.297648 0.3212374 -11.73736 86 94 102 255 
-2.11948 -1.442646 -12.323 142 142 142 255 
0.7951601 -2.600832 -12.2824 71 71 71 255 
-3.903018 -0.3595677 -12.89502 118 123 129 255 
1.159095 -2.080148 -11.78826 135 136 140 255 
1.15905 -2.081107 -11.78793 135 136 140 255 
-0.6257758 2.757087 -12.66795 102 107 111 255 
-0.0608544 2.712333 -12.66004 119 123 129 255 
0.2524296 3.704997 -12.5324 82 92 101 255 
0.2524296 3.704997 -12.5324 82 92 101 255 
-3.188017 0.3693008 -12.94956 147 148 150 255 
-0.2296043 -2.022156 -12.20856 65 72 78 255 
-0.2296043 -2.022156 -12.20856 65 72 78 255 
-0.7957303 0.5163283 -11.93366 23 28 33 255 
-3.106493 -0.9589841 -12.58996 117 126 132 255 
-0.4313999 3.387566 -12.40753 148 152 157 255 
0.03752587 2.514619 -12.54695 35 44 51 255 
1.13076 2.065878 -12.24821 26 31 35 255 
-0.8694951 3.597426 -12.50324 139 146 149 255 
-2.376897 -0.6933192 -12.73228 142 146 150 255 
0.5783438 1.98362 -12.22443 29 38 47 255 
-1.020873 1.584795 -12.62644 29 39 50 255 
-1.02067 1.58716 -12.62967 29 39 50 255 
1.894066 1.829263 -12.06311 91 96 101 255 
-0.7189984 4.063598 -12.78593 140 143 143 255 
1.234604 1.317046 -11.72388 2 4 8 255 
-2.199594 -2.802193 -12.86861 117 117 117 255 
-2.199594 -2.802193 -12.86861 117 117 117 255 
-2.961848 1.893956 -13.09412 35 49 59 255 
2.227004 -2.421745 -12.10464 43 63 78 255 
-3.283656 -1.192279 -12.29787 130 136 139 255 
-0.8380331 3.455846 -12.43338 137 144 149 255 
-0.1591134 0.3785298 -11.62374 13 20 26 255 
-1.191925 1.475085 -12.53071 22 34 43 255 
0.5228373 -2.184138 -11.75509 40 47 54 255 
-0.2060015 0.5637901 -11.74225 4 8 15 255 
2.033095 1.765838 -12.10345 137 140 142 255 
0.4432673 1.95639 -12.24434 25 34 42 255 
0.4432673 1.95639 -12.24434 25 34 42 255 
1.979939 0.5160574 -12.30726 118 118 119 255 
-1.664359 1.291577 -12.52507 20 30 40 255 
0.9313292 -2.245914 -11.77139 148 149 151 255 
-0.4730239 3.065545 -12.45058 132 135 141 255 
2.166406 1.644787 -12.14756 148 151 151 255 
-0.4141689 0.003578131 -11.90847 41 42 46 255 
-0.3953615 -0.05849118 -11.90553 126 127 129 255 
-0.3953615 -0.05849118 -11.90553 126 127 129 255 
-0.7774951 2.990867 -12.58063 48 53 54 255 
-3.93541 -0.6677187 -12.91083 118 126 129 255 
-3.93541 -0.6677187 -12.91083 118 126 129 255 
0.07447951 0.8915763 -11.81749 7 14 20 255 
-0.4942811 0.6922488 -11.92561 1 5 12 255 
0.09520341 2.480312 -12.50627 89 98 108 255 
-0.9005659 3.019346 -12.59199 68 70 69 255 
-2.503803 1.820598 -12.83915 17 29 41 255 
0.9584326 -2.575468 -12.19416 78 78 78 255 
-0.1048056 -2.522763 -12.16317 131 131 133 255 
1.92418 1.720185 -12.02093 81 86 94 255 
-2.419822 -0.7146524 -12.76606 59 71 82 255 
0.2464093 3.522681 -12.44403 65 72 76 255 
0.2464093 3.522681 -12.44403 65 72 76 255 
1.214624 -1.94076 -11.83492 138 140 145 255 
-1.319267 3.229152 -12.74795 28 31 36 255 
-4.605277 -1.409228 -13.31761 140 144 146 255 
-3.958167 -0.2968548 -13.0108 61 69 78 255 
-0.06740179 2.787294 -12.60468 108 113 119 255 
-0.06740179 2.787294 -12.60468 108 113 119 255 
-1.137266 -2.283701 -12.26967 89 100 110 255 
-0.5575223 1.742435 -12.60879 17 27 37 255 
-2.564112 1.435557 -12.67287 18 30 41 255 
0.7516614 2.330927 -12.41916 44 57 66 255 
-0.3834366 0.7705144 -11.91287 1 7 14 255 
0.6750722 1.557531 -11.93508 83 91 98 255 
-2.958811 0.4573706 -12.75246 143 145 147 255 
2.105573 -2.268342 -12.07058 120 129 136 255 
-0.6641059 -2.510136 -12.45522 74 78 79 255 
-3.509061 -0.2959502 -13.00137 54 63 76 255 
0.4848578 0.5243736 -11.4624 11 14 20 255 
1.903477 2.216919 -12.34275 30 36 44 255 
-2.485956 1.955392 -12.92511 120 131 135 255 
-2.486335 1.961315 -12.95015 120 131 135 255 
0.0473757 1.425735 -12.1021 1 5 13 255 
1.846415 1.917876 -12.10974 25 29 35 255 
-2.044367 0.9396591 -12.32945 77 88 97 255 
-0.7708139 4.086761 -12.79269 83 89 93 255 
-4.462687 3.272425 -13.38424 88 94 101 255 
1.22485 -2.104783 -11.81918 114 115 115 255 
0.3906743 0.7910522 -11.61433 1 3 7 255 
1.159336 1.82639 -12.04086 3 5 10 255 
-0.5434744 -1.920298 -12.34333 107 116 121 255 
1.908459 2.031479 -12.20217 94 104 113 255 
1.908459 2.031479 -12.20217 94 104 113 255 
-4.521607 3.267163 -13.37468 81 86 93 255 
0.7013233 3.819077 -12.53681 145 149 153 255 
-2.911776 -1.143773 -12.51373 116 123 128 255 
1.355644 -2.152556 -11.8795 107 105 109 255 
-2.759259 1.036825 -12.6386 123 130 135 255 
-4.013875 0.1360043 -13.19128 148 148 151 255 
1.06493 1.958386 -12.15491 22 27 32 255 
-1.251633 1.077159 -12.25516 74 86 93 255 
2.23357 1.617081 -12.1729 136 140 143 255 
0.6427372 3.528825 -12.57709 105 110 113 255 
0.6427372 3.528825 -12.57709 105 110 113 255 
1.816887 -1.540376 -12.29205 91 92 94 255 
-4.036465 -0.5072241 -13.02248 38 47 54 255 
-2.757121 -1.440738 -12.21906 137 144 148 255 
-3.522301 -0.7209868 -12.75605 122 130 133 255 
1.898799 2.279017 -12.39156 45 52 62 255 
-2.882898 -2.774273 -13.07311 41 49 59 255 
-3.283412 -1.445696 -12.49212 140 142 143 255 
1.658665 -2.052379 -11.98784 82 86 89 255 
-0.03952487 -2.543322 -12.19779 130 131 132 255 
-2.179031 -0.7194803 -12.71819 149 151 151 255 
-3.340187 -1.166849 -12.36694 132 137 142 255 
2.01217 0.4774486 -12.29754 145 145 145 255 
-0.1934989 -0.6844133 -12.10653 121 121 121 255 
-4.233434 -1.1871 -13.12109 115 123 125 255 
-0.09230392 3.738017 -12.55891 121 132 136 255 
-0.1117274 1.578829 -12.27753 11 21 30 255 
-4.618908 3.376843 -13.45676 31 40 48 255 
1.329488 -1.997386 -11.88655 49 56 63 255 
-4.650829 3.317427 -13.44608 34 44 52 255 
-0.582027 2.755422 -12.65 30 33 39 255 
-0.3429024 3.949138 -12.72032 118 128 136 255 
-3.424768 -1.08927 -12.49038 52 64 74 255 
-3.75469 -1.011649 -12.82523 60 67 75 255 
-3.75469 -1.011649 -12.82523 60 67 75 255 
-0.3054539 0.04978196 -11.75779 56 57 59 255 
-0.3054539 0.04978196 -11.75779 56 57 59 255 
-2.360795 1.579755 -12.66555 35 44 54 255 
-0.9701235 0.5163782 -12.02306 69 70 73 255 
-0.9701235 0.5163782 -12.02306 69 70 73 255 
0.2018897 3.146444 -12.57078 25 28 33 255 
-1.795409 1.871451 -12.93517 2 11 20 255 
-1.991946 1.096574 -12.42 18 30 40 255 
0.06050151 2.194392 -12.48948 63 76 85 255 
1.264642 1.395594 -11.76665 10 15 19 255 
-0.6753355 -0.2650171 -12.24591 124 124 124 255 
-1.148289 1.003458 -12.22663 43 56 65 255 
-1.148289 1.003458 -12.22663 43 56 65 255 
0.4264168 -2.171722 -11.80588 103 116 125 255 
1.812675 1.858412 -12.05788 65 73 80 255 
-3.620106 -0.4935053 -12.83803 47 56 71 255 
-3.86923 -1.67872 -13.20252 147 147 147 255 
1.721338 -2.07835 -11.93365 77 81 82 255 
-3.038728 1.103225 -12.80188 122 128 128 255 
-3.038728 1.103225 -12.80188 122 128 128 255 
0.6653841 -1.631567 -11.84388 112 118 122 255 
-2.862336 1.613744 -12.88757 10 22 32 255 
2.218893 -2.081002 -12.22944 46 52 60 255 
1.05556 -2.095144 -11.73044 129 129 131 255 
-2.029188 -0.8317431 -12.70757 109 116 118 255 
0.06162591 0.2129254 -11.43715 91 93 96 255 
-0.1706562 -1.079133 -12.28497 60 62 64 255 
-0.1706562 -1.079133 -12.28497 60 62 64 255 
-0.3473369 0.3015964 -11.72639 29 32 40 255 
0.1491252 2.018513 -12.38049 63 76 85 255 
-0.7146533 -2.271023 -12.23035 116 127 135 255 
0.2918862 2.024748 -12.31097 90 103 112 255 
1.617949 2.092149 -12.26915 60 65 72 255 
1.927255 2.082979 -12.24639 31 40 48 255 
-1.70313 1.521247 -12.68709 11 21 31 255 
1.97556 1.828893 -12.1157 86 94 104 255 
0.01025784 0.6036296 -11.66069 2 8 13 255 
-1.33613 3.541348 -12.7769 90 99 104 255 
2.2235 1.082002 -12.26627 143 146 145 255 
-1.113242 0.4557089 -12.10878 113 116 117 255 
-4.53787 3.535596 -13.49583 114 115 116 255 
-3.881113 -0.7246838 -12.84906 117 124 130 255 
-1.043158 3.499533 -12.56137 43 51 60 255 
-0.9762893 -0.137951 -12.36049 124 124 124 255 
0.3528933 2.438712 -12.43987 45 55 65 255 
0.339983 -2.290773 -11.91368 107 113 119 255 
2.025474 1.842292 -12.14753 48 54 61 255 
-0.2127141 3.205053 -12.30265 117 118 119 255 
0.1942482 2.2233 -12.43181 42 53 61 255 
0.1942482 2.2233 -12.43181 42 53 61 255 
1.999941 1.700675 -12.07667 137 141 142 255 
1.456135 1.838972 -12.06937 77 84 94 255 
0.8648162 2.310647 -12.42863 75 87 97 255 
2.196239 -2.234028 -12.14533 85 93 101 255 
-2.513849 -1.183159 -12.37115 47 59 75 255 
0.3081791 3.610941 -12.46977 125 132 137 255 
-3.099136 -1.285228 -12.29926 138 140 144 255 
-0.3041928 2.85133 -12.46206 45 50 53 255 
1.162035 1.685357 -11.95944 3 8 15 255 
0.4133937 1.922884 -12.22863 97 109 117 255 
-2.836931 1.726645 -12.94695 23 35 46 255 
1.285298 1.576702 -11.9007 2 8 14 255 
1.285298 1.576702 -11.9007 2 8 14 255 
-0.6336572 -1.814192 -12.38944 110 116 123 255 
-1.083306 3.116317 -12.62315 135 140 143 255 
-3.898847 -0.1825169 -12.99138 62 71 79 255 
-3.898847 -0.1825169 -12.99138 62 71 79 255 
-3.995973 -0.8698274 -12.98554 106 114 119 255 
-0.8829157 0.2090548 -12.11139 107 108 110 255 
-0.8829157 0.2090548 -12.11139 107 108 110 255 
0.841157 2.472626 -12.5254 122 132 137 255 
-0.4918218 -0.1009532 -12.00986 83 85 85 255 
-1.094996 -1.842126 -12.40389 108 114 119 255 
0.2639244 3.049375 -12.58292 149 149 152 255 
-2.638643 0.905226 -12.51803 49 54 59 255 
1.807551 -2.745738 -12.22937 149 149 146 255 
-0.7840098 -0.03171835 -12.17788 144 144 144 255 
0.4116027 2.189603 -12.36171 22 29 36 255 
-0.3914969 -2.466439 -12.30091 139 140 142 255 
-4.518335 3.417999 -13.40572 146 151 155 255 
-0.3848903 3.307268 -12.34889 143 148 152 255 
1.574357 1.950429 -12.14388 71 83 91 255 
-2.081917 1.532429 -12.6567 111 116 121 255 
-1.122652 3.286695 -12.57099 73 79 85 255 
-1.208753 -1.81977 -12.38834 128 133 137 255 
-0.03355244 -1.073722 -12.15091 136 138 137 255 
-0.03355244 -1.073722 -12.15091 136 138 137 255 
0.4718308 0.8736734 -11.65727 3 7 13 255 
0.1231942 -0.9012968 -11.99382 146 147 146 255 
-2.921084 0.4973475 -12.73383 75 81 84 255 
0.6442423 -2.039026 -11.726 112 121 127 255 
0.4971718 -0.7525151 -11.77544 85 85 85 255 
0.02809805 1.083878 -11.98272 6 16 23 255 
-3.393838 3.029221 -13.236 155 156 156 255 
-4.158237 -0.1536485 -13.18788 125 130 133 255 
-0.3407733 -0.2003034 -11.98792 129 129 129 255 
-0.121298 -1.023145 -12.2192 79 80 82 255 
-0.2470892 0.264566 -11.65942 31 35 42 255 
-1.147489 3.950723 -12.79901 32 40 45 255 
-0.5845588 2.681972 -12.72268 107 110 115 255 
-1.217495 1.840159 -12.87428 25 37 46 255 
-0.1079657 1.950694 -12.48301 5 14 24 255 
0.8601618 3.73296 -12.60609 49 54 55 255 
1.863928 -2.005071 -11.99811 133 136 138 255 
-1.328494 -0.3731416 -12.6372 153 153 153 255 
-1.527996 1.192087 -12.42915 6 16 25 255 
0.8564271 2.241883 -12.34002 42 52 62 255 
0.5653137 1.928256 -12.19064 73 84 93 255 
-0.580136 3.190398 -12.30885 130 132 136 255 
-3.283863 1.329317 -13.09175 28 40 48 255 
1.620687 -1.342456 -12.21815 141 142 141 255 
-0.5880268 0.4016776 -11.91032 43 44 47 255 
-4.553866 -1.354501 -13.28619 44 57 80 255 
-3.541569 -1.001634 -12.65891 51 59 66 255 
-3.541569 -1.001634 -12.65891 51 59 66 255 
0.1201031 -0.4463481 -11.72063 58 60 59 255 
-1.725106 1.873713 -12.95323 4 14 23 255 
-2.2315 -2.806466 -12.82671 147 147 147 255 
-3.732311 -0.5290855 -12.81695 124 130 135 255 
-2.24826 -0.8606948 -12.62931 131 138 142 255 
1.949362 -1.894849 -12.18323 78 82 85 255 
-1.01449 3.522137 -12.52184 84 93 102 255 
-0.3259094 -1.85965 -12.2837 105 113 119 255 
-0.849227 2.757486 -12.75457 133 134 136 255 
0.5120682 3.467804 -12.56318 112 116 121 255 
0.7346626 2.093131 -12.25554 85 96 105 255 
0.660305 -2.069397 -11.70094 40 48 58 255 
-1.094591 3.041147 -12.69272 126 128 131 255 
-3.156634 -2.439371 -13.15552 119 119 119 255 
-1.366276 0.5394271 -12.14687 143 145 149 255 
-1.366276 0.5394271 -12.14687 143 145 149 255 
-3.196288 -0.8653612 -12.58345 109 119 122 255 
-3.022325 -0.9701062 -12.61832 51 54 60 255 
0.5336189 3.535913 -12.53764 50 53 56 255 
0.4875411 3.359136 -12.61342 136 140 142 255 
-3.119676 1.574357 -13.01431 31 44 55 255 
-2.698863 -1.426006 -12.17851 48 56 73 255 
-2.698863 -1.426006 -12.17851 48 56 73 255 
-0.7538819 1.656288 -12.62654 12 24 33 255 
-2.631826 1.928107 -12.96947 30 44 55 255 
0.7639148 -1.920434 -11.67478 119 125 131 255 
-1.832556 1.803261 -12.93125 14 24 35 255 
-0.3376506 -0.9849082 -12.33602 113 113 114 255 
-0.3376506 -0.9849082 -12.33602 113 113 114 255 
0.4030866 -0.6604044 -11.70325 106 106 106 255 
0.4030866 -0.6604044 -11.70325 106 106 106 255 
0.8487015 -2.12592 -11.63384 47 55 62 255 
-1.408991 3.706958 -12.86345 86 95 101 255 
0.6694735 1.475368 -11.8305 12 20 29 255 
-1.69252 0.9183169 -12.25863 13 22 31 255 
-2.833719 -0.7474453 -12.82204 55 72 82 255 
1.891539 -2.693562 -12.24675 142 142 138 255 
-0.04858676 3.880098 -12.65348 121 130 135 255 
-0.2610269 -0.1903489 -11.9182 57 57 58 255 
0.8675181 3.88377 -12.57484 141 146 148 255 
-2.909401 -1.601064 -12.33206 127 127 127 255 
-2.909401 -1.601064 -12.33206 127 127 127 255 
-1.345848 0.8110943 -12.19343 62 74 83 255 
-2.556092 0.9083835 -12.43575 61 71 79 255 
-0.3322499 -2.437412 -12.24907 124 128 130 255 
-0.4907418 1.946046 -12.73348 5 14 23 255 
-0.41829 3.022781 -12.42654 123 127 131 255 
-0.41829 3.022781 -12.42654 123 127 131 255 
-4.093055 -0.6691147 -13.06574 100 108 113 255 
-0.1806984 2.065524 -12.59526 4 14 23 255 
0.1993231 3.364823 -12.49643 147 147 147 255 
0.8565611 -2.571751 -12.2166 129 129 129 255 
-2.454587 -1.346751 -12.21029 149 152 153 255 
-0.4368313 1.384388 -12.28038 2 9 18 255 
-1.488436 1.303639 -12.49235 18 27 37 255 
0.5979892 0.7937301 -11.56934 12 15 21 255 
0.7954017 3.672822 -12.58269 41 43 43 255 
0.1364444 -1.395055 -12.13547 129 133 136 255 
-0.2342508 -2.473425 -12.18093 59 60 61 255 
-0.4631376 0.195916 -11.81474 99 101 107 255 
-4.358052 -1.129577 -13.23451 117 123 128 255 
-1.727732 1.32141 -12.50149 18 28 39 255 
2.351121 1.585529 -12.25671 144 147 148 255 
-2.673167 -0.7620739 -12.80163 70 84 93 255 
-2.125431 1.934204 -12.92668 10 19 30 255 
-2.733976 -0.687503 -12.83412 46 64 77 255 
-0.1760926 -0.1022999 -11.81283 127 128 130 255 
0.6310834 3.569784 -12.54994 36 38 39 255 
-1.551327 0.6289466 -12.18808 134 136 139 255 
-1.923728 -1.196998 -12.55606 142 142 142 255 
-1.923728 -1.196998 -12.55606 142 142 142 255 
1.205734 1.208855 -11.64946 99 102 105 255 
1.205734 1.208855 -11.64946 99 102 105 255 
-0.9977224 -1.855693 -12.38766 120 126 132 255 
-3.31711 -0.4055173 -12.90028 77 86 95 255 
1.433327 1.626023 -11.92997 12 20 28 255 
-2.070359 0.9954041 -12.3482 57 67 77 255 
-2.673082 -1.464541 -12.14178 120 128 133 255 
-0.724404 2.927337 -12.59859 122 125 127 255 
-0.4643931 -2.04852 -12.2382 55 64 71 255 
-0.4643931 -2.04852 -12.2382 55 64 71 255 
-1.043222 2.807816 -12.82113 140 143 147 255 
-3.05111 -1.4148 -12.28234 91 92 94 255 
-3.05111 -1.4148 -12.28234 91 92 94 255 
-1.048263 0.6742648 -12.11427 19 29 38 255 
-0.7370538 3.331985 -12.3368 136 139 144 255 
-4.25557 -0.765494 -13.19885 27 35 45 255 
-0.7362487 -0.4902281 -12.35302 149 149 150 255 
-0.6822889 -2.278245 -12.20215 114 124 133 255 
-0.6000564 2.716072 -12.69222 32 35 41 255 
-0.6000564 2.716072 -12.69222 32 35 41 255 
-4.289538 -1.089382 -13.19446 58 66 72 255 
-4.289538 -1.089382 -13.19446 58 66 72 255 
-0.04349164 1.05045 -11.91738 7 12 21 255 
-3.876765 -0.2170208 -12.97822 129 133 136 255 
-1.279859 0.9665088 -12.17387 71 84 93 255 
1.759548 2.200366 -12.35126 25 31 36 255 
-4.520646 3.300341 -13.36719 132 138 143 255 
-4.520646 3.300341 -13.36719 132 138 143 255 
-4.190212 -1.09597 -13.11091 113 120 127 255 
-2.23818 -1.102116 -12.41875 128 129 131 255 
-2.23818 -1.102116 -12.41875 128 129 131 255 
-3.761462 -0.1280255 -12.98326 97 101 104 255 
0.09774506 2.240913 -12.48733 57 70 79 255 
-3.122943 -1.248159 -12.27465 64 71 81 255 
-3.387695 -0.8707934 -12.58814 125 132 136 255 
-3.387695 -0.8707934 -12.58814 125 132 136 255 
-0.9303775 0.7666638 -12.07165 55 68 77 255 
0.9050702 2.361129 -12.45932 100 111 120 255 
-1.008754 -2.292288 -12.25569 80 90 99 255 
0.2680354 0.7383326 -11.65305 1 5 11 255 
-0.1711407 -1.916541 -12.22497 49 57 63 255 
-2.430111 -0.9643104 -12.54574 71 81 85 255 
-2.430111 -0.9643104 -12.54574 71 81 85 255 
-0.6578707 3.335231 -12.3493 55 59 66 255 
-0.6578707 3.335231 -12.3493 55 59 66 255 
-1.869987 1.667382 -12.81906 28 40 50 255 
1.98743 0.787745 -12.26705 142 142 142 255 
1.203344 -2.716417 -12.3753 134 134 134 255 
-0.512765 -1.864575 -12.3546 44 53 60 255 
1.368584 -2.063208 -11.89794 48 58 76 255 
1.91438 2.129829 -12.29638 67 75 82 255 
1.91438 2.129829 -12.29638 67 75 82 255 
-0.7055636 -2.354334 -12.30134 140 143 146 255 
0.8962685 -2.749753 -12.41019 110 110 110 255 
-1.872132 -1.54423 -12.42187 146 150 153 255 
0.2566914 0.4379403 -11.42755 2 4 8 255 
-3.254133 -1.529511 -12.57197 77 78 80 255 
-2.840524 -0.9865566 -12.65073 44 58 69 255 
-1.704372 1.739511 -12.83395 27 38 50 255 
-3.521013 0.3842528 -13.10487 149 153 154 255 
-0.4619706 -1.982926 -12.28646 86 94 101 255 
-1.037886 -2.396744 -12.22314 142 145 146 255 
-2.834162 1.467676 -12.74491 10 23 32 255 
-2.835383 1.079283 -12.63811 131 135 137 255 
-0.2772863 1.857834 -12.56938 17 27 37 255 
-0.1228929 3.330916 -12.37389 147 148 151 255 
-2.918929 -1.006716 -12.60477 88 97 101 255 
-3.8652 -1.271041 -12.92368 35 52 77 255 
-0.8035178 0.5674118 -11.95487 97 106 112 255 
-0.4338764 -2.442307 -12.30787 138 139 141 255 
-0.9633354 -0.2269236 -12.38791 148 148 148 255 
-0.6647058 2.527771 -12.82268 139 141 144 255 
-2.189682 -0.8660632 -12.64353 139 141 144 255 
-2.189682 -0.8660632 -12.64353 139 141 144 255 
-3.151454 1.131711 -12.90502 43 54 62 255 
-2.65486 -1.149358 -12.44754 38 50 70 255 
-0.154393 2.87305 -12.47225 56 61 63 255 
-0.4917078 2.666203 -12.70208 30 30 35 255 
0.02158773 -0.5067851 -11.83724 128 129 131 255 
1.421867 1.424747 -11.78646 2 6 13 255 
-0.870032 3.189155 -12.4098 61 65 71 255 
0.1045929 -1.858379 -12.08484 104 111 117 255 
-1.638756 1.008734 -12.24083 14 25 34 255 
-2.295334 1.619121 -12.66868 42 52 60 255 
-0.2201152 2.103141 -12.61699 12 22 31 255 
-0.1253874 0.4029547 -11.6055 0 4 7 255 
0.3288101 3.677241 -12.50064 122 126 133 255 
-2.268247 1.139555 -12.42778 116 125 132 255 
-0.7301509 3.243015 -12.33265 102 105 111 255 
-1.162544 3.480324 -12.63424 23 30 37 255 
-3.743722 3.073745 -13.23771 148 149 148 255 
2.112879 1.618806 -12.10958 148 150 151 255 
0.8662474 -1.648942 -11.76123 64 70 73 255 
-2.971353 0.5476487 -12.78041 115 116 121 255 
0.245793 -0.7476793 -11.79997 89 89 89 255 
-0.3586884 -0.9488178 -12.32244 148 148 148 255 
-0.8564104 -2.358512 -12.30336 132 138 140 255 
0.7199395 3.612928 -12.58667 50 54 56 255 
0.06360935 0.6915897 -11.69155 10 16 23 255 
-1.423242 -0.3216057 -12.6327 149 150 149 255 
-0.6573327 -2.18657 -12.20748 73 85 95 255 
-0.6573327 -2.18657 -12.20748 73 85 95 255 
-0.2918534 0.02419737 -11.78424 63 64 66 255 
-2.18102 -0.7988327 -12.65437 133 141 142 255 
-1.587081 -0.2866613 -12.62497 149 149 149 255 
-0.5818326 2.999399 -12.51756 87 88 88 255 
1.186656 2.061408 -12.24926 64 74 83 255 
0.5150534 3.425049 -12.58829 33 35 39 255 
-0.8703828 0.3505211 -12.02623 142 143 146 255 
1.990564 -1.978416 -12.13765 112 118 118 255 
-2.208203 1.357029 -12.52551 60 68 76 255 
-2.208203 1.357029 -12.52551 60 68 76 255 
-2.186807 -0.9476686 -12.5691 141 144 147 255 
-0.9216288 2.988401 -12.64591 124 128 127 255 
-0.8737372 3.051733 -12.58093 146 147 148 255 
0.09971151 2.085584 -12.43749 61 72 82 255 
-0.9240454 0.504267 -11.97995 73 74 78 255 
-0.4892206 2.746632 -12.62281 135 135 139 255 
-1.148869 3.860106 -12.7264 33 41 48 255 
-0.5451741 0.3671967 -11.87458 113 116 116 255 
0.5820854 -2.173689 -11.70663 40 45 52 255 
-3.186419 1.093236 -12.93638 133 136 140 255 
-1.0335 -2.366809 -12.28101 84 89 92 255 
-1.0335 -2.366809 -12.28101 84 89 92 255 
-0.7988189 2.956231 -12.59144 136 142 142 255 
0.7851008 1.577887 -11.88222 12 16 23 255 
-1.311621 1.437696 -12.5547 2 10 20 255 
-0.6636043 0.0003029056 -12.07706 141 140 142 255 
-0.6085508 3.923313 -12.66103 95 101 110 255 
-3.471279 -1.381869 -12.6078 98 100 99 255 
-3.023288 -1.459543 -12.28279 151 152 153 255 
-0.1710676 0.04506606 -11.65782 125 125 124 255 
-0.4563779 1.434577 -12.29935 11 19 27 255 
0.8075795 -2.637603 -12.29639 129 130 129 255 
-0.6114632 0.1729315 -11.94114 79 83 85 255 
-0.1630923 0.3126772 -11.61743 4 7 14 255 
-1.364627 3.459448 -12.78711 79 85 91 255 
0.6209684 1.719813 -12.05692 75 84 94 255 
-2.68835 0.8765864 -12.53874 117 119 124 255 
-2.12462 0.9328657 -12.3189 79 91 101 255 
-2.12462 0.9328657 -12.3189 79 91 101 255 
-2.816989 -1.502245 -12.15355 151 152 155 255 
0.018276 2.773962 -12.63692 68 74 78 255 
-3.988093 -0.5121642 -12.97249 119 127 131 255 
0.5531936 0.8188782 -11.60035 1 4 10 255 
0.06912083 2.430006 -12.51329 78 90 97 255 
-1.392753 -2.484881 -12.38025 150 150 150 255 
-2.909194 -0.6306623 -12.8738 53 67 74 255 
-2.829439 0.5043883 -12.69247 138 140 143 255 
-0.9840705 3.80829 -12.66796 47 56 66 255 
0.7718347 1.538583 -11.86181 64 69 76 255 
1.237307 -2.74326 -12.33913 93 93 93 255 
1.237307 -2.74326 -12.33913 93 93 93 255 
-2.183007 1.642613 -12.70059 130 135 139 255 
-1.335483 0.4637232 -12.18112 109 112 112 255 
-1.765905 1.056032 -12.35038 16 28 37 255 
0.7092893 3.571237 -12.58666 104 110 113 255 
-0.9440265 3.03916 -12.60155 143 146 144 255 
0.6925111 -1.952712 -11.71356 128 134 139 255 
-1.044206 3.228456 -12.51855 56 63 70 255 
0.2435959 3.272841 -12.52153 9 12 13 255 
-3.123872 -2.166976 -12.96677 127 127 127 255 
-3.092102 1.498461 -12.97006 25 37 48 255 
0.5781329 -2.291339 -11.78494 53 54 51 255 
-0.1662328 2.024592 -12.59194 14 23 31 255 
1.137024 1.969254 -12.16093 57 65 72 255 
2.096802 -2.306128 -12.07617 28 46 73 255 
-2.463888 1.558906 -12.64062 47 59 71 255 
-2.463888 1.558906 -12.64062 47 59 71 255 
-1.525841 0.5960377 -12.18621 105 108 110 255 
-1.166008 1.415116 -12.51711 22 33 42 255 
-1.336816 -2.178906 -12.21418 123 130 131 255 
-0.6519363 3.219671 -12.32726 106 109 114 255 
-0.3388665 -2.646311 -12.36742 137 137 138 255 
1.791147 1.829844 -12.0572 13 14 16 255 
-0.07642008 2.061532 -12.52376 15 22 33 255 
-0.2916429 -2.027001 -12.21273 117 122 128 255 
-1.486967 0.5763366 -12.18231 109 112 114 255 
-2.51126 -0.1715928 -12.82583 88 91 93 255 
-2.51126 -0.1715928 -12.82583 88 91 93 255 
-1.043479 2.745097 -12.83537 143 147 150 255 
0.01063798 3.53918 -12.41245 115 123 130 255 
0.351838 0.2542782 -11.30825 16 22 30 255 
-1.086 2.705941 -12.9097 149 150 152 255 
-1.310421 2.955557 -12.90089 127 127 128 255 
-2.513243 1.680678 -12.73369 25 37 49 255 
-3.220268 0.8641949 -12.97431 140 143 146 255 
-1.225963 -2.371992 -12.25431 146 148 150 255 
-0.9087414 3.573967 -12.50184 94 103 109 255 
1.464455 -2.17861 -11.86512 46 54 68 255 
-2.959312 -0.8549646 -12.72424 116 121 128 255 
-1.373363 0.9788113 -12.23233 68 79 89 255 
1.077673 -2.5195 -12.12206 131 131 130 255 
-3.178993 -1.971478 -12.8828 133 133 133 255 
-3.99349 -0.6578124 -12.95151 85 94 96 255 
0.8607524 -1.267984 -11.80534 107 112 113 255 
-1.348656 3.033141 -12.85205 113 116 117 255 
-1.447688 0.5697084 -12.17948 149 151 152 255 
-0.3069451 -2.329022 -12.20998 62 75 84 255 
-1.139263 2.971087 -12.7813 47 50 54 255 
0.3236294 -1.351764 -12.01302 129 133 137 255 
-4.174226 -0.6855146 -13.12334 88 96 105 255 
-2.488096 1.419187 -12.58435 18 31 42 255 
2.116738 1.974839 -12.24041 49 57 64 255 
-3.26555 1.140555 -12.99025 33 44 52 255 
-3.26555 1.140555 -12.99025 33 44 52 255 
-0.491934 2.969227 -12.50246 129 132 134 255 
-1.321936 3.000032 -12.87832 77 78 79 255 
-1.903318 1.847147 -12.92611 8 18 28 255 
-0.6430068 3.001176 -12.52839 81 81 81 255 
-0.6505086 2.673395 -12.7399 39 42 48 255 
0.1429845 -1.131896 -12.12143 139 140 140 255 
-3.504636 2.879385 -13.17225 134 139 140 255 
-3.01102 1.36815 -12.87492 14 27 35 255 
-2.824236 1.765076 -12.96516 37 51 62 255 
0.7509487 -1.990658 -11.68047 111 118 125 255 
-0.8265756 0.4620319 -11.95773 122 124 130 255 
-1.216725 3.695215 -12.75131 72 76 83 255 
0.05428697 1.171288 -12.00639 1 7 14 255 
-0.8851545 3.482322 -12.43212 51 59 67 255 
0.8581679 2.119533 -12.26056 80 90 99 255 
0.8581679 2.119533 -12.26056 80 90 99 255 
-1.684808 1.824664 -12.87709 24 36 48 255 
-0.38541 0.1426564 -11.75251 107 107 108 255 
1.244721 -2.403587 -12.01056 150 150 150 255 
-0.6197078 0.04495981 -12.01167 133 133 133 255 
-4.130224 -1.122728 -13.05214 104 112 121 255 
-0.3707538 1.537532 -12.35832 11 20 28 255 
-0.3707538 1.537532 -12.35832 11 20 28 255 
-2.630502 0.9959508 -12.54393 64 72 81 255 
-4.14812 -1.228231 -13.06108 83 90 95 255 
-1.013868 3.424161 -12.54308 91 100 107 255 
0.01606611 3.384252 -12.35952 153 154 156 255 
0.6616769 2.176742 -12.32952 90 102 111 255 
-3.414936 -1.126562 -12.45738 125 130 137 255 
0.9812122 -0.8641207 -11.82482 134 134 134 255 
-2.92358 -2.431184 -12.94049 123 123 123 255 
-0.2636072 2.675089 -12.65348 134 138 143 255 
-4.583736 3.345542 -13.40765 115 123 128 255 
0.2636998 0.004224161 -11.36394 117 117 119 255 
-1.322688 0.7730966 -12.16798 35 46 55 255 
0.249325 2.132871 -12.36367 66 74 85 255 
-2.734925 -1.206295 -12.42285 62 67 72 255 
0.8999853 -1.626175 -11.78502 139 141 142 255 
-2.523057 1.454131 -12.61392 58 70 82 255 
-2.523057 1.454131 -12.61392 58 70 82 255 
-3.347285 1.083051 -13.06536 59 69 77 255 
-2.339691 -0.7312908 -12.71712 73 83 90 255 
-2.248994 -1.931025 -12.18252 154 154 154 255 
-0.5419078 0.4031213 -11.85254 43 46 49 255 
-2.959192 -2.718629 -13.09664 66 67 71 255 
-2.959192 -2.718629 -13.09664 66 67 71 255 
-0.6134545 3.473334 -12.38624 115 122 128 255 
-0.6134545 3.473334 -12.38624 115 122 128 255 
1.032055 2.236638 -12.36875 65 76 86 255 
0.6403577 0.6351586 -11.49534 13 16 23 255 
-1.148946 3.520176 -12.64175 53 61 65 255 
-0.5629322 -1.775115 -12.37415 115 120 126 255 
-1.407228 3.255923 -12.78949 57 62 65 255 
-0.5301392 0.2119716 -11.87704 67 71 76 255 
-2.46396 1.173165 -12.45683 102 113 120 255 
0.09107214 -0.5256798 -11.78845 67 70 69 255 
-2.700259 -0.009575638 -12.78407 132 133 133 255 
-2.700259 -0.009575638 -12.78407 132 133 133 255 
-1.25136 1.592931 -12.67125 13 23 32 255 
-1.640691 0.8186473 -12.19059 29 40 48 255 
0.831981 1.346776 -11.75587 80 86 92 255 
0.831981 1.346776 -11.75587 80 86 92 255 
0.1013865 -0.4051902 -11.71565 123 124 125 255 
0.5711375 0.7509383 -11.5284 2 5 12 255 
-1.757599 1.593518 -12.75903 13 23 33 255 
-3.396639 -0.286606 -12.97665 90 97 99 255 
0.7910612 -2.103638 -11.62703 46 55 62 255 
-1.534858 3.500744 -12.94178 101 105 108 255 
-2.318776 -0.2239764 -12.77573 101 104 105 255 
-3.482791 -1.016439 -12.59583 62 73 81 255 
-3.920079 -0.4574838 -12.90936 107 116 125 255 
-3.291263 -1.239975 -12.35909 105 111 117 255 
0.8076873 3.816571 -12.57477 86 91 95 255 
-0.9044644 3.648 -12.55817 80 90 95 255 
-0.9317265 3.71694 -12.63231 121 131 136 255 
1.108094 1.41599 -11.77342 1 3 8 255 
-1.052851 -1.962731 -12.34284 101 105 107 255 
-1.052851 -1.962731 -12.34284 101 105 107 255 
-0.6643071 1.08358 -12.18362 8 17 27 255 
-2.547791 -1.040096 -12.51317 51 59 67 255 
-0.138525 -2.37924 -12.11226 54 65 74 255 
-0.6623975 2.832055 -12.63199 129 133 138 255 
-4.001923 -0.8321481 -12.99629 50 59 65 255 
-4.084806 -0.3459933 -13.11348 129 133 139 255 
-0.1217025 3.37442 -12.3601 69 74 79 255 
-3.32212 -1.123577 -12.36065 101 108 114 255 
-0.4372117 0.3556825 -11.83782 42 44 46 255 
-3.481577 -0.9323921 -12.62711 49 61 70 255 
0.7435808 -2.251156 -11.71188 104 106 107 255 
-0.289524 -0.9834262 -12.32649 140 140 141 255 
1.438928 1.574597 -11.9026 32 39 47 255 
1.438928 1.574597 -11.9026 32 39 47 255 
-2.385326 1.817751 -12.7955 96 105 114 255 
-3.948452 -1.32448 -12.938 54 67 87 255 
-0.3515877 -1.998474 -12.2011 83 90 96 255 
-1.226013 3.237946 -12.64343 40 44 47 255 
-2.182579 -0.1824348 -12.73159 142 141 142 255 
-2.688391 -0.6053894 -12.85707 54 70 82 255 
-0.3298751 1.414218 -12.27276 5 15 25 255 
-1.357391 0.8981153 -12.17618 23 36 45 255 
-1.357391 0.8981153 -12.17618 23 36 45 255 
0.1464827 -0.7943308 -11.90333 119 119 119 255 
-0.799609 0.42654 -11.95885 57 59 61 255 
-0.7943569 3.418948 -12.36024 119 126 132 255 
-1.930236 1.051388 -12.35791 21 31 41 255 
-3.252659 -1.269848 -12.36618 139 143 146 255 
-3.570194 -0.7116489 -12.80411 76 84 88 255 
-1.143911 4.000636 -12.84004 73 80 85 255 
-1.143911 4.000636 -12.84004 73 80 85 255 
2.033606 0.3955453 -12.32163 118 123 123 255 
-0.2793998 -0.0202 -11.78914 117 118 120 255 
-3.517073 -1.067442 -12.58272 122 130 134 255 
-3.03562 1.251153 -12.82653 81 91 99 255 
-0.9081017 2.721637 -12.81339 57 59 62 255 
-4.334473 -1.263105 -13.19308 52 67 83 255 
0.3958554 3.659577 -12.48673 115 120 126 255 
0.4108527 2.032451 -12.27918 29 37 42 255 
-3.273804 -0.4058984 -12.87307 79 88 95 255 
-1.310701 0.4969212 -12.15194 135 139 140 255 
-3.439606 -1.458018 -12.63649 77 78 75 255 
-0.5773894 -2.101034 -12.2373 75 88 98 255 
-0.1272741 -1.843182 -12.21587 55 64 71 255 
-0.1272741 -1.843182 -12.21587 55 64 71 255 
-2.616952 1.283623 -12.57617 69 81 92 255 
0.5868644 -2.12499 -11.72997 92 100 109 255 
-0.7521632 3.294142 -12.33757 36 39 43 255 
-0.9771164 3.30811 -12.49097 94 102 109 255 
-1.12448 -3.303451 -12.94645 149 149 149 255 
2.801996 -2.010995 -12.33724 23 30 42 255 
4.85148 -4.413816 -13.88752 163 163 163 255 
3.827085 0.6248119 -13.12726 157 157 157 255 
4.84701 -0.2381046 -13.634 56 57 54 255 
4.835306 -0.2377779 -13.50592 56 57 54 255 
-1.677476 -4.541471 -13.83019 28 24 21 255 
1.158714 4.409356 -13.00608 161 161 161 255 
1.158714 4.409356 -13.00608 161 161 161 255 
-0.4144917 4.792652 -13.18439 163 163 163 255 
5.182067 -2.826715 -13.05177 155 153 154 255 
3.486669 -0.9504055 -13.29313 136 136 136 255 
2.855762 4.344455 -13.08742 50 52 50 255 
-2.828614 5.188699 -13.86532 149 150 152 255 
2.509316 2.036323 -12.50821 155 155 155 255 
2.152699 -1.083963 -12.59954 149 149 149 255 
-1.996973 4.1478 -13.48584 4 7 6 255 
2.83893 -2.746332 -12.36557 161 161 161 255 
1.192684 3.670505 -12.71127 27 27 25 255 
1.192684 3.670505 -12.71127 27 27 25 255 
2.508569 4.910255 -13.1869 17 19 18 255 
1.340583 5.035585 -13.20363 20 22 20 255 
3.82782 1.081893 -13.03439 160 160 160 255 
-0.7718173 2.155293 -12.88573 4 13 22 255 
2.222046 -4.720578 -13.74692 161 161 161 255 
2.222547 -4.721014 -13.72897 161 161 161 255 
-2.867093 -3.984175 -13.76997 75 66 53 255 
-2.867093 -3.984175 -13.76997 75 66 53 255 
-3.805614 4.974405 -13.92871 8 14 20 255 
-3.372937 -3.717183 -13.80027 158 158 158 255 
-1.075147 4.695457 -13.26325 15 15 12 255 
3.146484 -3.593962 -12.98355 132 132 132 255 
-1.380231 -3.860219 -13.51926 150 151 147 255 
3.410982 -1.686662 -13.24543 55 58 65 255 
3.51456 -2.56437 -12.48055 136 137 137 255 
0.8084835 5.252878 -13.24611 157 159 158 255 
5.030205 3.587027 -13.54987 88 88 88 255 
5.041348 -2.337274 -13.05016 135 140 141 255 
1.059095 4.707283 -12.9942 161 161 161 255 
3.086189 2.421975 -12.96609 157 157 157 255 
-3.241798 -4.760059 -14.07331 20 20 20 255 
0.7637508 -4.335579 -13.72257 159 159 157 255 
-1.434359 4.376228 -13.26958 128 132 132 255 
3.250852 -2.343212 -12.3821 25 30 34 255 
-0.6024671 -4.560994 -13.71568 61 58 48 255 
-1.326657 2.372617 -13.02168 144 149 153 255 
2.860317 5.137155 -13.26926 61 67 67 255 
4.051524 -2.418061 -12.66109 110 114 115 255 
2.842534 4.164706 -13.05631 40 43 44 255 
2.842534 4.164706 -13.05631 40 43 44 255 
2.872317 -0.1836481 -12.77996 154 154 154 255 
3.71938 -2.802958 -12.58976 146 146 146 255 
1.377423 1.084679 -11.65693 159 159 159 255 
0.08994057 5.008146 -13.19242 4 4 6 255 
4.365748 -2.661963 -12.81961 71 79 86 255 
-2.312543 5.109838 -13.78521 59 56 46 255 
5.360725 0.4401228 -13.62836 56 57 52 255 
-0.4443447 -0.453424 -12.26825 145 145 145 255 
-1.422946 3.872114 -13.02123 12 13 15 255 
-1.422946 3.872114 -13.02123 12 13 15 255 
4.05057 -4.415775 -13.49859 146 146 146 255 
-1.208039 4.968288 -13.29349 135 139 138 255 
3.274734 4.564432 -13.09333 163 163 163 255 
3.274734 4.564432 -13.09333 163 163 163 255 
2.72441 1.186043 -12.56653 153 153 153 255 
5.331848 3.158165 -13.68326 47 53 53 255 
5.331848 3.158165 -13.68326 47 53 53 255 
-3.769354 -4.045187 -13.94941 79 81 80 255 
0.7428769 -5.18387 -13.81955 130 131 133 255 
-3.55175 4.856577 -13.80382 147 147 138 255 
-3.55175 4.856577 -13.80382 147 147 138 255 
2.577048 1.501976 -12.41125 63 71 74 255 
2.576789 1.503258 -12.42778 63 71 74 255 
-0.8943599 4.870214 -13.22804 18 20 19 255 
4.037677 2.97175 -13.0209 157 159 158 255 
0.03737769 -2.121217 -12.16853 122 128 134 255 
3.082208 4.411073 -13.02456 10 14 18 255 
1.551929 4.674043 -13.09716 156 159 158 255 
-2.16305 -3.851672 -13.75136 159 159 159 255 
-0.13745 -4.111944 -13.73613 159 158 156 255 
-1.172476 -4.844265 -13.75984 129 129 124 255 
-0.5455388 -4.238726 -13.75184 156 155 153 255 
-3.214586 5.006504 -13.86101 148 143 137 255 
5.11562 3.287802 -13.61374 154 155 157 255 
3.777521 -0.5756596 -13.41296 130 130 130 255 
3.777521 -0.5756596 -13.41296 130 130 130 255 
-1.678207 -3.853281 -13.65748 152 152 150 255 
3.705909 5.038773 -13.37947 163 163 163 255 
3.705909 5.038773 -13.37947 163 163 163 255 
1.97885 2.431117 -12.50336 105 115 124 255 
2.937168 -2.045063 -12.53782 20 27 38 255 
0.2514761 5.213748 -13.20765 142 145 150 255 
1.589748 -4.541467 -13.62574 83 84 78 255 
-0.8480312 -4.284563 -13.66355 148 147 143 255 
-2.756909 -4.56699 -13.97165 27 18 20 255 
0.9904042 -4.597672 -13.71194 58 65 58 255 
3.206871 -2.074321 -12.62853 91 95 96 255 
3.207451 -2.081857 -12.66796 91 95 96 255 
-1.832758 3.729489 -13.22441 151 153 152 255 
-1.833435 3.730374 -13.2274 151 153 152 255 
4.906894 -2.875232 -12.87155 153 154 154 255 
-1.215127 5.17658 -13.33436 32 33 28 255 
-1.215127 5.17658 -13.33436 32 33 28 255 
0.3070152 3.323528 -12.66879 32 32 36 255 
2.917234 4.707383 -13.08264 149 154 157 255 
-1.317359 2.742416 -13.00809 16 16 18 255 
4.371894 -2.43152 -12.99879 121 123 122 255 
4.284713 -2.055413 -13.0956 97 102 105 255 
-2.550672 -5.236825 -14.13109 57 46 35 255 
-3.689892 -3.574667 -13.82684 91 91 90 255 
1.755515 4.168249 -13.04712 66 66 61 255 
3.530075 -0.4414452 -13.35938 26 33 31 255 
2.430357 2.947069 -12.79322 9 9 9 255 
2.430357 2.947069 -12.79322 9 9 9 255 
1.842369 -2.483581 -12.0043 157 157 157 255 
-1.916607 -3.984764 -13.74081 75 83 82 255 
3.401714 3.796217 -12.98328 137 142 146 255 
3.914734 2.397002 -13.26898 23 28 27 255 
4.973907 -2.494178 -13.02522 138 143 143 255 
4.092608 1.596254 -13.22215 44 53 58 255 
3.743751 2.248681 -13.25233 158 157 158 255 
-2.533778 -4.022193 -13.83613 146 147 142 255 
4.29482 -4.394514 -13.56163 107 108 103 255 
4.076047 -1.895942 -13.23051 59 64 68 255 
2.274734 5.120467 -13.29914 87 87 85 255 
3.877788 4.892316 -13.4131 47 51 51 255 
3.877788 4.892316 -13.4131 47 51 51 255 
4.568224 0.7748916 -13.28781 147 147 148 255 
-1.352819 2.272015 -13.00465 143 148 152 255 
2.733165 4.698576 -13.06321 10 12 11 255 
-1.553602 2.633933 -13.08189 141 145 147 255 
3.708994 -0.9287038 -13.41907 147 147 146 255 
-1.532723 -4.06518 -13.63439 69 74 70 255 
1.101839 -4.936785 -13.5454 146 146 146 255 
3.309027 1.863438 -13.13271 157 159 158 255 
3.125506 0.9504561 -12.87726 93 94 89 255 
0.5985689 3.313054 -12.65266 158 158 154 255 
0.001003599 4.350398 -13.0696 158 158 156 255 
1.916849 5.330009 -13.40844 149 156 155 255 
2.442036 -1.448121 -12.72723 59 60 59 255 
3.522099 -2.292129 -12.66461 21 22 22 255 
-3.790151 -4.062185 -13.96396 82 83 81 255 
5.278101 2.113376 -13.49522 143 143 145 255 
-3.096148 4.886206 -13.80636 14 18 19 255 
5.472663 1.375845 -13.64923 145 144 141 255 
5.472663 1.375845 -13.64923 145 144 141 255 
0.5571651 4.82135 -12.96747 138 147 152 255 
3.453441 3.977418 -13.02422 160 163 163 255 
3.933912 3.813203 -13.11606 158 158 158 255 
2.553809 0.7498606 -12.66985 141 144 143 255 
2.553809 0.7498606 -12.66985 141 144 143 255 
1.057027 3.769252 -12.71579 43 43 42 255 
-0.3100141 -4.291001 -13.75666 92 94 88 255 
-0.3096782 -4.291292 -13.75436 92 94 88 255 
3.531198 2.32267 -13.12156 48 53 56 255 
1.507153 4.105371 -12.92646 161 161 162 255 
1.417004 -5.08915 -13.54604 152 152 150 255 
-0.5515692 -3.833751 -13.48366 146 146 145 255 
-1.799288 3.5144 -13.14764 20 28 33 255 
-0.3913933 -4.031499 -13.65288 69 62 43 255 
1.784978 4.562099 -13.16273 56 56 56 255 
1.784978 4.562099 -13.16273 56 56 56 255 
-2.010478 -4.760794 -13.9803 89 79 69 255 
-3.209543 -4.021603 -13.70244 160 160 160 255 
-2.83282 -3.74213 -13.70947 119 119 116 255 
1.547971 -2.156646 -11.89038 36 52 70 255 
1.547971 -2.156646 -11.89038 36 52 70 255 
-2.508068 -4.523914 -13.96409 153 152 148 255 
4.630741 -2.08106 -13.14551 108 113 114 255 
2.622247 -0.8004865 -12.88457 151 151 151 255 
3.118967 4.739803 -13.07606 30 35 38 255 
4.525692 -2.245908 -13.06082 105 112 115 255 
2.881662 2.363308 -12.71546 157 157 157 255 
4.966802 3.421989 -13.53984 158 160 160 255 
4.322329 1.006614 -13.31964 38 43 43 255 
1.127235 4.804157 -13.10687 162 162 162 255 
3.85867 -1.630155 -13.33348 56 57 57 255 
4.054718 -0.8428998 -13.45767 136 136 136 255 
3.328577 5.149809 -13.34653 151 151 157 255 
3.777986 -2.256969 -12.7356 24 31 35 255 
-1.172971 4.54501 -13.25982 5 5 5 255 
-2.890302 -3.430476 -13.57885 158 158 158 255 
-1.953712 5.01279 -13.62208 5 7 2 255 
0.04582549 -4.275421 -13.79511 83 88 86 255 
0.646171 4.648414 -12.93125 5 6 6 255 
5.396847 2.487526 -13.63862 98 97 93 255 
-3.114236 5.178668 -13.8364 38 38 35 255 
-1.396962 4.086205 -13.08533 112 116 120 255 
-2.46992 -3.577934 -13.6738 158 158 158 255 
0.9416009 5.321345 -13.30503 158 160 159 255 
2.967402 -1.873939 -12.63829 89 97 99 255 
-1.33035 -4.737741 -13.80719 32 32 28 255 
3.346945 4.807654 -13.13558 14 21 27 255 
2.195443 0.9308587 -12.3675 152 152 152 255 
4.481052 -2.884449 -12.78617 130 134 135 255 
3.756773 -2.522665 -12.61424 101 108 111 255 
1.701588 1.890369 -12.04698 18 19 24 255 
1.423347 -4.425537 -13.55225 155 155 154 255 
2.502902 -1.766862 -12.64243 41 41 39 255 
2.879277 -1.125625 -13.16596 126 127 129 255 
3.615176 -0.05853046 -13.33145 85 86 82 255 
2.8773 5.23491 -13.3458 12 17 14 255 
3.159896 -1.849372 -12.66459 38 45 53 255 
4.158317 -4.115975 -13.35563 121 122 124 255 
4.158313 -4.116016 -13.35582 121 122 124 255 
-2.511698 -4.337038 -13.92222 150 149 146 255 
5.546725 1.509961 -13.66665 26 27 21 255 
2.992368 -4.379187 -13.55003 149 149 149 255 
4.080154 -2.321087 -12.83306 107 113 112 255 
1.791213 -4.442532 -13.65125 156 156 156 255 
1.434205 4.735779 -13.09325 161 161 161 255 
0.797172 3.328673 -12.73243 9 9 9 255 
0.797172 3.328673 -12.73243 9 9 9 255 
4.953004 4.544393 -13.67776 55 54 47 255 
4.953004 4.544393 -13.67776 55 54 47 255 
-2.711786 -4.916638 -14.01625 40 35 33 255 
-2.711786 -4.916638 -14.01625 40 35 33 255 
-2.31022 4.886837 -13.70512 61 60 51 255 
-1.537472 2.817008 -13.0274 26 25 25 255 
4.483712 -2.277593 -13.07947 110 116 119 255 
-2.924692 -5.130753 -14.10086 80 80 71 255 
0.989498 3.331696 -12.77051 156 159 159 255 
2.449932 4.641825 -13.21501 26 26 24 255 
-1.256273 -4.293832 -13.69295 149 148 147 255 
-2.146354 5.139735 -13.71617 24 24 14 255 
1.525318 1.895842 -12.09942 86 98 105 255 
4.632315 -1.763719 -13.31124 98 106 109 255 
2.17667 0.3240414 -12.40673 57 61 60 255 
3.106086 4.183934 -13.01606 162 162 162 255 
