ply
format ascii 1.0
comment author: Caleb Adams & Jackson Parker
comment SSRL CV simple PLY writer
element vertex 1875
property float x
property float y
property float z
end_header
-7718.71 1456.72 138.978
-7718.71 1456.72 138.978
-7331.45 2026.31 0.946686
-7643.37 1895.37 51.9721
-7643.37 1895.37 51.9721
-7808.51 1813.72 129.502
-7781.99 1722.88 31.7542
-7718.73 1542.92 139.1
-7488.16 1526.18 67.3224
-7300.44 1460.55 95.9479
-7808.78 1945.6 131.989
-7710.77 1781.07 148.194
-7612.7 1485.7 163.88
-7792.15 1895.74 126.816
-7792.15 1895.74 126.816
-7624.85 2017.88 -54.931
-7380.39 2735.84 -8.89523
-7306.63 2686.64 -14.3426
-7437.67 2432.34 -7.30831
-7808.47 2396.29 129.044
-7768.04 2298.03 149.399
-7256.09 2181.62 -89.8431
-7256.09 2181.62 -89.8431
-7792.08 2162.44 126.054
-7445.3 2128.72 -33.8739
-7502.66 2436.33 -31.4324
-7382.23 2375.47 92.7741
-7624.93 2190.08 -54.046
-7624.93 2190.08 -54.046
-7031.04 82.0124 -332.153
-7031.04 82.0124 -332.153
-6443.17 1319.62 -283.203
-6092.38 1381.31 -235.275
-6182.08 1147.67 -244.338
-5863.85 1139.53 -206.069
-5781.53 783.069 -208.786
-6059.78 1069.83 -222.701
-5699.07 1020.36 -286.254
-5820.22 1007.88 -388.748
-5920.89 942.709 -206.344
-5920.89 942.709 -206.344
-6694.5 504.434 77.8509
-6758.32 369.093 -28.9606
-6709.41 336.291 -18.7982
-6438.43 295.254 -73.7299
-6513.07 278.958 -4.86698
-6421.66 155.818 -80.5201
-6413.72 668.363 -71.1054
-6857.79 598.995 54.6728
-6470.54 586.376 -105.178
-6701.1 566.124 -12.9999
-6970.29 553.618 -61.2329
-6970.29 553.618 -61.2329
-6988.3 533.263 25.4065
-6652.17 508.504 -20.0952
-6482.04 504.584 91.7211
-6560.12 418.371 -101.653
-6462.46 418.211 -97.0911
-6513.01 401.924 -5.49259
-6717.4 389.64 -27.7246
-6603.17 393.754 3.47958
-6603.17 393.754 3.47958
-6554.69 377.355 0.656701
-6890.77 328.234 62.8058
-6635.55 246.133 -25.5121
-6421.81 205.138 -79.162
-6848.09 32.8252 -38.0396
-6617.96 -16.3272 -108.749
-6857.81 660.406 54.8712
-7019.67 586.473 -49.8498
-6815.16 541.346 -45.7605
-6931.48 525.113 59.5404
-6454.5 483.845 -87.8901
-6454.5 483.845 -87.8901
-6784.41 418.451 67.0477
-6675.09 143.512 -108.398
-6710.56 672.709 60.639
-6710.56 672.709 60.639
-6547.31 566.097 84.2291
-6694.54 426.671 78.2019
-6694.54 426.671 78.2019
-7053.9 49.2231 38.1628
-7053.9 49.2231 38.1628
-6766.66 1349.33 -17.4249
-6945.96 1316.44 -54.9921
-6972.17 1271.71 41.7029
-6725.84 1251.11 -15.2735
-6478.95 1217.94 -92.8949
-7094.73 1197.74 35.9198
-6552.65 1086.68 -87.6459
-6511.84 1070.15 -85.5249
-6774.65 1062.2 -26.4276
-6470.9 1037.45 -84.5179
-6536.23 980.067 -91.1554
-6413.95 963.722 -68.8624
-6413.95 963.722 -68.8624
-6519.69 885.738 -95.8246
-7088.41 857.526 128.571
-7061.78 824.498 28.1531
-6397.47 1234.31 -72.9365
-6717.25 762.835 -29.2353
-6792.51 734.264 61.9818
-6772.86 1336.7 -126.098
-6658.58 1238.02 -112.731
-6890.76 1140.6 62.6379
-6890.76 1140.6 62.6379
-6740.37 943.139 -115.508
-6560.71 738.153 -95.962
-6821.77 1320.26 -136.154
-6397.43 729.929 -73.2874
-6382.64 578.526 25.1928
-6382.64 578.526 25.1928
-6021.82 524.866 -36.3764
-5956.57 254.267 -14.5869
-6363.69 73.8056 -157.989
-6323.9 -0.0775861 -76.9648
-5750.79 660.152 -93.6274
-5997.26 652 -32.2413
-5923.96 569.744 -19.4697
-5750.96 500.216 -91.9947
-5742.8 401.911 -84.5179
-5930.52 319.841 -112.243
-5865.14 221.347 -106.063
-6227.56 200.967 41.2145
-6227.56 200.967 41.2145
-6185.07 49.1744 -59.463
-6266.69 -8.218 -63.8422
-6250.26 -16.4782 -67.367
-6250.26 -16.4782 -67.367
-5701.62 619.106 -103.5
-6014.82 561.87 51.972
-6014.82 561.87 51.972
-6119.88 446.973 -37.0936
-6152.4 246.057 -47.4543
-6152.4 246.057 -47.4543
-6103.42 229.676 -40.9388
-5692.19 475.4 -196.197
-6234.12 65.6248 -50.918
-6234.12 65.6248 -50.918
-6232.53 1389.54 -152.862
-6111.86 734.079 -28.3503
-6036.72 717.408 -134.658
-6297.73 1373.36 -174.88
-5987.66 840.457 -125.991
-5716.9 807.519 -181.228
-6134.48 799.476 -152.282
-5930.58 799.489 -111.679
-5930.58 799.489 -111.679
-6265.49 783.067 -144.607
-5725.01 909.672 -189.147
-6364.48 721.695 -81.3746
-6318.56 1214.32 113.236
-6435.12 1991.95 -274.81
-6714.17 1799.61 -212.661
-6893.74 2508.73 -232.528
-6893.74 2508.73 -232.528
-5945.08 1959.21 -228.195
-5830.79 1869.1 -215.408
-6369.76 1704.99 -271.804
-6361.58 1623.01 -264.556
-5912.73 2721.6 -216.323
-5968.46 2651.42 -313.339
-6196.95 2638.95 -342.361
-5822.85 2205.31 -205.886
-5806.49 2680.78 -208.908
-6862.53 2000.8 -138.824
-6536.21 2000.79 -91.3996
-6896.89 1853.5 -49.1632
-6552.84 2033.84 -85.8759
-6972.15 2026.46 41.5045
-6413.92 2025.49 -69.1981
-6986.69 1599.35 -58.0133
-6536.29 1591.01 -90.6366
-6929.78 1582.99 -41.9
-6937.79 1496.96 -50.5823
-6955.97 1439.85 40.4364
-6872.45 2050.58 -44.0363
-6625.65 2046.02 -120.605
-6675.01 1927.21 -109.176
-6428.72 1844.82 -167.434
-6905.27 1829.19 -37.3377
-6780.93 1820.48 -134.323
-6830.2 1660.63 -123.809
-6748.41 1570.38 -123.901
-6880.81 1476.42 -32.3633
-6789.31 1455.62 -122.375
-6740.37 1992.86 -115.539
-6560.76 1829.5 -95.4737
-6792.4 1731.13 60.8984
-6536.2 2255.3 -91.4301
-6774.33 2214.77 -29.4641
-6454.77 2197.84 -85.2198
-6436.41 2816.37 -193.572
-6536.21 2771.9 -91.4148
-6536.21 2771.9 -91.4148
-6560.72 2562.77 -95.9467
-6774.61 2550.92 -26.7786
-6717.32 2546.75 -28.6096
-6740.34 2505.19 -115.829
-6479.05 2476.6 -92.0099
-6896.88 2374.58 -49.4074
-6603.32 2329.61 4.92917
-7052.07 2280.14 -64.2389
-6462.62 2279.93 -95.55
-6652.2 2255.75 -19.8511
-6813.66 2197.78 -128.341
-6536.32 2132.29 -90.3315
-6462.51 2115.69 -96.6028
-6691.46 2652.92 -105.453
-6452.85 2652.35 -189.834
-6452.85 2652.35 -189.834
-6519.86 2607.94 -94.2377
-6676.39 2489.44 -27.4347
-6849.71 2338.28 62.76
-6527.83 2320.88 -103.332
-6527.83 2320.88 -103.332
-6798.99 2276.14 -29.7388
-6413.87 2247.14 -69.6711
-6568.78 2222.49 -104.202
-7053.96 2682.68 38.7274
-6756.79 2780.11 -112.014
-6756.79 2780.11 -112.014
-6413.97 2567.26 -68.6487
-6429.96 2337.24 -86.6236
-6740.35 2558.58 -115.707
-6625.72 2156.83 -119.918
-5684.06 1717.53 -188.461
-5716.9 2033.28 -181.198
-6356.54 1976.38 -71.8836
-6061.08 1779.24 -140.624
-6371.26 1561.94 -171.035
-6371.31 1451.27 -170.638
-6371.31 1451.27 -170.638
-6338.37 1414.5 -178.634
-5997.22 2021.75 -32.6533
-6297.72 1533.23 -175.003
-5793.33 1656.93 8.68276
-6024.43 1542.64 145.737
-6306.12 2804.24 -162.78
-6167.28 2775.64 -145.614
-5937.48 2328.27 -201.08
-5708.58 2311.92 -192.886
-5708.58 2311.92 -192.886
-6290.93 2251.16 -85.235
-5749.43 2205.39 -194.58
-6387.53 2189.48 -168.991
-5799.66 2123.78 -118.515
-6299.31 2431.66 -73.2722
-6201.36 2394.77 -57.2504
-6152.47 2386.58 -46.8439
-5809.14 2288.24 -25.5274
-7855.79 2859.35 37.3542
-8077.94 3208.57 96.5736
-7849.46 2909.32 128.342
-8055.16 3529.4 183.518
-7840.97 3504.1 115.708
-8091.76 3399.75 374.329
-7922.73 3282.5 112.107
-7849 3265.87 123.994
-7969.62 3183.43 2.36581
-7989.74 3180.44 189.82
-7900.39 3164.42 220.307
-8080.59 3143.82 204.102
-8022.69 3106.83 197.282
-8053.51 2859.87 101.853
-7975.69 3522.38 291.901
-7975.69 3522.38 291.901
-7824.53 3446.67 112.214
-8151.3 3298.66 83.6646
-8008.14 3300.51 294.465
-7857.44 3085.63 119.416
-8040.74 2988.4 282.014
-8020.78 3553.23 96.3447
-8037.37 4115.47 101.166
-7822.77 4085.95 29.0229
-7914.9 4078.66 122.346
-8053.55 3873.48 102.25
-7888.31 3782.19 24.2164
-7888.31 3782.19 24.2164
-8127.01 4189.36 90.1649
-8092.4 4130.79 -1.29629
-8020.76 4127.75 96.1616
-7988.18 3832.37 108.72
-8138.68 3665.65 264.802
-7890.34 3660.19 126.481
-7939.17 3610.77 115.632
-7939.17 3610.77 115.632
-8053.47 3676.36 101.472
-8053.47 3676.36 101.472
-7821.08 4216.18 -70.0982
-7227.02 3446.41 108.063
-7227.02 3446.41 108.063
-7192.68 3482.46 19.5777
-7300.42 3475.23 95.7648
-7743.06 3360.74 132.844
-7259.75 3315.11 113.663
-7259.75 3315.11 113.663
-7735.05 3307.37 141.343
-7282.19 3273.07 -9.12412
-7235.08 3257.58 99.8236
-7388.71 3129.76 2.31998
-7659.79 3048.15 55.2375
-7339.58 3039.43 -6.5759
-7251.43 3524.38 102.601
-7382.29 3511.63 93.3539
-7382.29 3511.63 93.3539
-7596.28 3496.21 160.477
-7488.05 3487.16 66.117
-7684.23 3462.47 49.9732
-7553.34 3446.01 58.9301
-7745.13 3435.42 235.841
-7488.12 3421.51 66.8799
-7808.48 3381.17 129.136
-7563.48 3377.16 154.404
-7669.74 3340.24 148.514
-7677.78 3233.45 140.198
-7677.78 3233.45 140.198
-7258.06 3203.56 13.2453
-7192.77 3179 20.4016
-7215.32 3112.55 -87.2491
-7288.59 3104.23 -100.494
-7298.59 3412.65 -5.98081
-7164.54 2861.7 -179.595
-7383.7 3364.94 174.042
-7383.7 3364.94 174.042
-7429.65 2920.53 1.25187
-7429.65 2920.53 1.25187
-7733.31 3967.02 41.4588
-7561.92 3930.33 72.4952
-7471.74 3774.31 63.8587
-7766.08 4086 47.4555
-7388.75 3765.46 2.6099
-7292.03 3659.55 83.8629
-7735.09 3586.36 141.755
-7300.44 3577.69 95.9479
-7169.67 3577.68 106.019
-7461.79 3551.97 -29.8608
-7363.92 3937.61 -12.6947
-7363.92 3937.61 -12.6947
-7832.81 4369.97 122.773
-8175.79 4903.12 78.8734
-8094.41 4624.43 100.236
-8118.62 4492.91 78.614
-8118.62 4492.91 78.614
-7929.11 4492.11 21.836
-8241.18 4258.84 72.6631
-7814.65 4930.88 19.8218
-7814.65 4930.88 19.8218
-7896.67 4812.12 35.5994
-8183.84 4714.2 70.7405
-8053.7 4566.87 103.593
-8069.98 4312.42 105.485
-8070.06 5567.96 106.11
-8061.57 5518.62 93.5218
-8200.26 5649.72 73.8838
-7863.82 5628.33 28.8856
-8110.9 5457.24 104.096
-8159.29 5415.92 74.8146
-8075.94 5332.68 -5.00418
-8183.86 5194.16 70.9541
-8223.25 5180.79 -10.711
-8223.25 5180.79 -10.711
-8233.24 5087.68 81.7115
-8233.24 5087.68 81.7115
-8159.47 5030.2 76.493
-7847.36 5029.34 25.1472
-7961.62 5636.39 11.0023
-8118.61 5522.52 78.4461
-7830.98 5423.2 22.2022
-8051.4 5410.62 -0.975859
-8167.82 5317.59 87.7235
-8094.4 5235.6 100.083
-8094.4 5235.6 100.083
-8118.58 4981.12 78.141
-7435.4 4655.52 -28.8842
-7755.97 4827.46 -47.1795
-7586.43 4812.33 67.9633
-7610.8 4697.38 62.0429
-7706.63 4622.25 -57.9369
-7233.58 4450.52 17.9907
-7749.51 4931.05 42.6032
-7494.6 4700.46 -23.5437
-7184.26 4388.91 7.18752
-7429.61 4610.45 0.824624
-7774.26 5612.01 40.3907
-7774.26 5612.01 40.3907
-7806.45 5497.07 26.5815
-7741.66 5349.47 52.7351
-7741.66 5349.47 52.7351
-7717.3 5091.37 58.7012
-7667.74 5607.99 45.8991
-7324.92 5575.62 90.9735
-7790.11 5168.88 24.0638
-7790.11 5168.88 24.0638
-7787.52 5323.28 -83.5259
-7118.94 5398.08 14.2523
-6410.61 4147.74 -273.483
-6410.61 4147.74 -273.483
-5806.45 4180.97 -209.32
-6856.19 3510.61 -45.9741
-6896.92 2923.91 -48.9649
-6611.3 3449.25 -4.1193
-6972.34 3298.07 43.2288
-7021.15 3252.9 32.1356
-7021.15 3252.9 32.1356
-6668.51 3244.16 -17.4707
-6445.96 3202.4 -101.409
-6790.72 3178.47 -40.542
-6815.13 3121.05 -46.142
-6421.97 3091.83 -77.6972
-6693.12 3063.66 -21.0108
-6845.83 2964.58 -144.988
-6756.83 2964.67 -111.602
-6756.83 2964.67 -111.602
-6568.77 2882.61 -104.293
-6960.53 3476.8 -154.327
-6989.98 3475.18 126.282
-6764.76 3071.11 -121.124
-6438.34 2972.94 -74.5691
-6740.36 2907.12 -115.585
-6650.51 2899.06 -104.644
-7017.83 3419.47 -152.282
-6544.21 3157.25 -100.265
-6776.27 3216.17 74.5245
-7070.13 3183.23 39.6277
-7070.13 3183.23 39.6277
-6462.5 4133.22 -96.7554
-6784.39 3556.61 66.8188
-6784.39 3556.61 66.8188
-6874.21 4233.45 57.984
-6586.88 4187.57 1.14499
-6454.46 4084.05 -88.302
-6495.33 3928.22 -89.8737
-6413.77 3772.47 -70.6934
-6686.1 3716.69 65.6897
-6751.91 3688.05 80.5823
-6488.79 3670.56 1.8774
-6670.08 3622.37 83.2373
-6666.68 3616.57 -120.742
-6733.76 3576.35 -25.0238
-6604.78 3581.38 87.5403
-6905.29 4134.07 -37.2614
-6668.34 3781.45 -19.1492
-6915.03 3741.11 55.7562
-6506.38 3733.15 85.3735
-6802.16 3664.11 154.359
-6701.11 3658.56 -12.8931
-6597.88 3639.53 175.812
-7013 3585.24 39.4598
-6908.5 3540.88 146.79
-6989.98 3532.55 126.374
-6593.56 4149.64 -88.9582
-6874.22 4217.04 58.0756
-6694.51 3692.14 77.8509
-6079.06 3374.9 -35.0489
-5988.87 3350.48 -44.5551
-5890.93 3338.11 -28.4571
-5964.36 3264.22 -40.0385
-5752 3170.01 -11.7793
-5685.58 3136.63 -85.937
-6029.65 3104.25 -47.1034
-6029.65 3104.25 -47.1034
-6199.84 2869.79 -158.508
-6085.69 3513.75 -126.785
-6201.39 3497.89 -56.8842
-6023.13 3494.82 63.2635
-5873.24 3476.81 -114.135
-6119.86 3456.99 -37.3072
-6072.16 3445.45 54.1692
-5979.33 3423.3 -137.649
-5882.73 3399.81 -21.377
-5882.73 3399.81 -21.377
-6358.02 3359.1 11.3989
-5825.84 3325.89 -19.3171
-5882.84 3305.36 -20.2784
-5874.77 3289.03 -11.9776
-5734.53 3292.36 -95.7026
-5734.53 3292.36 -95.7026
-5799.16 3284.07 -123.458
-5799.16 3284.07 -123.458
-5824.38 3218.59 -103.5
-5726.12 3218.91 -90.6672
-5726.12 3218.91 -90.6672
-6330.53 2906.7 -168.243
-6201.31 3050.88 -57.7235
-6331.87 3001.87 -86.3184
-6103.38 2928.09 -41.3966
-6024.42 3511.88 145.051
-5757.87 4148.44 -181.823
-5954.79 4067.04 -133.483
-5930.6 3960.58 -111.526
-5971.17 3898.97 -130.371
-6142.45 3870.05 -161.56
-5839.24 4131.87 -202.651
-5839.24 4131.87 -202.651
-6382.66 3683.3 25.2539
-6308.76 3617.66 18.2653
-6072.14 3568.57 54.0166
-6349.82 3564.27 18.4332
-6052.97 3562.85 -132.659
-6103.45 3920.36 -40.8167
-6103.44 4240.21 -41.0761
-6410.52 5406.03 -274.307
-6624 5029.99 -205.017
-6606.26 4991.79 -307.083
-6067.47 4877.63 -234.695
-5921.04 4832.98 -205.047
-6182.17 4853.01 -243.53
-6018.9 4836.76 -221.374
-6018.9 4836.76 -221.374
-6378.09 4647.9 -260.406
-6124.84 5193.16 -246.139
-6108.55 5635.75 -248.413
-5682.46 5536.6 -291.915
-6255.71 5488.36 -239.547
-6010.62 5254.72 -232.62
-5682.64 5212.79 -290.054
-6076.34 5185.21 -217.834
-5788.67 5077.67 -296.218
-5788.67 5077.67 -296.218
-6116.81 5053.85 -237.487
-5830.99 4972.02 -213.546
-5830.99 4972.02 -213.546
-5904.62 5537.79 -208.618
-6018.87 4992.47 -221.679
-5921 5533.72 -205.505
-5921 5533.72 -205.505
-6133.17 5295.77 -234.374
-6149.29 5607.01 -251.419
-6149.29 5607.01 -251.419
-6593.81 4916.43 -86.6693
-6485.71 4911.29 -182.632
-6944.14 4879.02 -157.607
-7076.29 4876.23 -54.5953
-6972.11 4303.07 40.9857
-7070.33 4922.51 41.5045
-6723.93 4674.34 -119.171
-6511.8 5650.56 -86.059
-6838.14 5457.39 -133.285
-6567.41 5144.97 -186.096
-6527.87 5338.68 -103.149
-6110.24 4764.17 -130.935
-6036.55 4267.93 -136.26
-6346.91 4833.48 -165.191
-5995.59 4809.07 -135.757
-6093.81 4723.08 -134.628
-5840.47 4505.75 -120.788
-6281.27 4468.51 -178.939
-6069.94 4305.22 -123.87
-6191.67 4251.41 -151.351
-5741.39 4558.26 -185.943
-5798.46 5513.27 -200.225
-5733.01 5132.01 -198.135
-7871.58 6247.78 17.8535
-8029.53 6199.89 111.13
-7880.2 6313.49 31.6932
-7847.41 5944.19 25.5744
-8102.43 5900.17 91.7823
-7863.87 5895.03 29.267
-8118.57 5789.28 77.9579
-7914.71 5728.15 120.515
-7824.52 5723.93 111.939
-8118.51 6101.1 77.4085
-7961.7 5919.47 11.6279
-7857.5 5834.82 119.874
-8049.87 6348.7 -81.6033
-8183.87 5768.67 71.0151
-8020.63 6211.91 94.9104
-8020.63 6211.91 94.9104
-8098.32 5987.49 -109.939
-7939.29 5785.61 116.639
-8077.98 6577.27 96.833
-8231.11 6481.07 -20.797
-8108.26 6550.87 -17.5774
-8173.73 6497.43 -23.1469
-8173.73 6497.43 -23.1469
-7840.98 6487.09 115.586
-7840.98 6487.09 115.586
-8051.23 6460.89 -2.45596
-7896.75 6461.27 36.164
-7767.77 6274.22 146.638
-7561.89 6289.39 72.0069
-7200.57 6267.58 9.64418
-7708.7 6256.22 44.9378
-7502.59 6254.91 -32.409
-7502.59 6254.91 -32.409
-7372.41 6246.96 -0.212979
-7667.79 5809.03 46.4179
-7781.98 5792.39 31.5559
-7717.03 5677.29 39.4141
-7602.76 6281.06 70.1758
-7641.36 5914.28 -50.7653
-7766.02 5735.19 46.7383
-7766.02 5735.19 46.7383
-7628.88 6023.92 150.208
-7543.53 6012.84 -33.3245
-7200.72 5931.26 11.048
-7200.72 5931.26 11.048
-7406.52 6552.11 85.8771
-7375.75 6968.01 183.015
-7375.75 6968.01 183.015
-7800.02 6524.05 116.563
-7537.5 6445.31 77.7137
-7388.75 6443.94 2.45731
-7151.84 6431.87 21.4392
-7431.13 6490.39 82.3371
-7431.13 6490.39 82.3371
-7749.5 6469.54 42.4354
-7628.83 6877.44 149.766
-7433.11 6590.56 185.288
-7433.11 6590.56 185.288
-7932.92 7502.4 206.895
-7982.03 7785.54 200.73
-7900.3 7711.83 219.025
-8106.5 7705.33 295.121
-8120.86 7526.94 196.351
-8226.78 8203.72 170.457
-8177.81 7834.54 180.1
-7571.88 7451.88 165.848
-7251.29 7286.47 100.968
-7227.02 7746.09 107.773
-7227.02 7746.09 107.773
-7465.34 7386.76 171.525
-7382.28 7384.94 92.9572
-7382.07 7262.02 90.882
-7310.52 7263.42 190.934
-7294.13 7255.62 202.256
-7342.74 7230.59 174.775
-7432.98 7222.6 183.839
-7432.98 7222.6 183.839
-7800.15 7599.11 117.753
-7697.73 7590.66 326.89
-7677.78 7583.03 139.893
-7661.33 7574.8 136.368
-7628.82 7345.25 149.735
-7480.14 7241.17 75.608
-7661.63 7501.2 139.237
-7400.22 7452.14 178.055
-7400.22 7452.14 178.055
-7155.12 7305.57 204.85
-7122.5 7288.16 214.738
-7367.77 7312.91 192.246
-7727.69 7600.12 607.575
-7161.97 7303.72 589.356
-7225.11 8228.18 5.18862
-7331.35 8207.8 -0.396088
-7143.52 7990.57 10.1019
-7118.95 7867.4 14.0387
-7119.03 7810.12 14.7711
-7168.01 7941.02 5.3412
-7168.01 7941.02 5.3412
-6688 5663.87 -309.86
-6198.45 5758.85 -241.378
-6198.45 5758.85 -241.378
-6002.49 5664.68 -225.082
-6560.73 5724.17 -95.9925
-6395.81 6292.83 -175.476
-6412.16 5866.55 -172.424
-6772.87 6175.03 -126.235
-7094.72 7018.53 35.5994
-7054.08 6452.61 39.5361
-6653.6 7068.37 79.1479
-6555.61 7060.22 95.1849
-6555.61 7060.22 95.1849
-6784.34 7043.54 66.1474
-6784.34 7043.54 66.1474
-6457.72 7011.22 112.229
-6413.84 6454.4 -70.0983
-6413.84 6454.4 -70.0983
-6354.99 5788.7 -173.324
-5873.38 5723.57 -112.96
-5749.49 5693.61 -194.061
-5749.49 5693.61 -194.061
-6315.71 6060.77 -70.0373
-6139.09 6227.98 149.582
-6139.09 6227.98 149.582
-6070.62 5913.25 -47.851
-6201.37 5732.78 -57.281
-5814.86 6558.67 -196.914
-6285.99 7076.96 122.971
-5923.7 7049.46 -22.2773
-5972.69 7016.67 -28.5334
-6062.52 6975.39 -39.9317
-6167.97 6950.87 430.649
-6331.76 7012.4 -70.1136
-6054.54 6766.49 -30.6391
-5839.27 6386.35 -202.423
-6100.63 7623.99 -224.685
-6043.37 8189.67 -226.516
-5822.9 7948.08 -205.52
-5781.9 7882.43 -205.413
-5723.55 8028.14 -291.244
-6050.52 7828.55 -243.484
-6050.52 7828.55 -243.484
-6478.94 7790.97 -93.3527
-6609.5 7778.66 -104.492
-6536.28 7766.53 -91.0639
-6725.49 7751.44 -18.9966
-6529.43 7714.72 -2.25773
-6505.09 7620.36 3.8763
-6578.48 7554.68 -11.2452
-6539.34 7507.32 93.0639
-6916.51 7434.62 137.757
-6431.7 7399.02 15.9765
-7096.18 7147.16 117.203
-6939.51 7736.56 50.5377
-7088.21 7680.74 126.389
-6627.41 7628.46 -18.2489
-6627.41 7628.46 -18.2489
-6488.66 7567.14 0.458331
-6628.9 7515.17 64.6368
-6981.92 7319.82 134.324
-6572.09 7281.85 99.198
-6808.52 7199.11 44.068
-6751.84 7183.2 79.6362
-7049.03 7173.82 229.294
-6459.03 7156.23 193.665
-6900.4 7127.15 154.481
-6776.17 7679.46 73.2428
-7017.86 7372.04 -152.114
-6975.22 7240.9 223.649
-6975.22 7240.9 223.649
-6511.85 7684.45 -85.5402
-7004.43 8023.34 25.6049
-6880.98 7866.35 -31.0816
-6986.75 7981.16 -57.7997
-6986.75 7981.16 -57.7997
-6478.98 7946.71 -92.9865
-6848.03 7907.05 -38.9551
-6421.87 7840.25 -78.8874
-7044.03 8107.8 -56.228
-7012.92 7908.77 38.5138
-6578.45 7817.16 -11.4435
-6788.94 7806.55 -143.356
-6175.28 7744.32 -154.724
-6134.47 7703.47 -152.603
-5824.29 7687.63 -104.629
-5998.41 7378.97 48.3404
-6230.25 7132.01 222.901
-6230.25 7132.01 222.901
-6259.91 7591.99 25.8642
-5915.66 7221.94 -13.6866
-6021.69 7147.81 -37.8718
-6122.63 7089.52 145.737
-5691.97 7312.27 -198.806
-5942.3 7129.75 159.668
-5942.3 7129.75 159.668
-5988.76 7471.56 -45.6996
-6061.01 7847.45 -124.237
-5880.26 8177.7 -202.697
-6069.36 8072.66 -129.608
-6289.69 7842.66 -166.61
-5922.27 7834.89 -123.352
-5118.23 1364.56 -310.226
-5150.64 1265.62 -324.829
-5018.88 1167.5 -397.995
-5674.48 1086.15 -282.608
-5085.64 1085.88 -300.979
-5085.64 1085.88 -300.979
-5142.7 1053.11 -315.109
-5167.1 995.65 -320.648
-5167.1 995.65 -320.648
-5150.77 708.813 -323.547
-5207.96 1151.41 -322.143
-5207.96 1151.41 -322.143
-5437.91 1143.45 -248.367
-5462.19 1004.08 -269.454
-5003.9 745.779 -298.324
-5607.65 1253.78 -378.738
-5412.07 1089.9 -345.245
-4987.45 1024.4 -302.475
-4987.45 1024.4 -302.475
-5199.82 1302.99 -314.422
-4840.59 483.541 -277.069
-4341.34 430.182 -325.76
-4561.86 409.761 -344.94
-4349.49 -8.26523 -333.45
-4390.48 598.182 -315.399
-4299.38 597.985 -426.162
-4439.41 524.457 -325.225
-4626.89 507.879 -368.377
-4853.56 466.816 -558.059
-4853.56 466.816 -558.059
-4897.89 450.779 -274.566
-4897.89 450.779 -274.566
-4372.97 262.153 -420.745
-4397.3 196.907 -427.032
-4307.48 915.714 -1157.64
-4839.57 1388.89 -376.754
-4823.11 1356.16 -380.951
-4464.21 1331.62 -341.049
-4731.92 978.75 -459.274
-4766.07 1348.1 -366.714
-4766.07 1348.1 -366.714
-4668.01 1331.42 -349.182
-4520.97 1266 -343.872
-4625.98 1225.02 -449.417
-4487.27 1126.35 -432.342
-4674.87 1003.39 -459.564
-4307.67 937.994 -414.276
-4307.67 937.994 -414.276
-4455.67 884.962 -337.326
-4364.84 860.206 -412.826
-4570.14 1372.52 -333.236
-4618.83 1306.91 -359.756
-4283.19 1265.7 -409.576
-4283.19 1265.7 -409.576
-4315.66 1134.65 -423.629
-4464.87 1114.69 -244.14
-4520.05 1077.3 -425.171
-4741.48 1036.51 -363.098
-4741.48 1036.51 -363.098
-4880.26 930.02 -379.745
-4568.87 872.365 -436.142
-4504.52 852.206 -348.037
-4700.77 839.991 -360.214
-4635.24 823.447 -356.124
-4946.68 708.845 -300.109
-4821.99 1171.47 -463.699
-4511.79 794.654 -436.767
-4381.02 688.137 -429.382
-4887.31 810.989 -469.848
-4887.31 810.989 -469.848
-4576.91 1212.47 -444.87
-5553.24 676.391 -180.358
-5553.24 676.391 -180.358
-5324.78 532.992 -150.238
-5595.59 496.146 -79.3452
-5620.18 381.32 -83.2057
-5618.64 155.83 -182.861
-5618.64 155.83 -182.861
-5243.23 41.0358 -131.073
-5284.06 98.3855 -132.888
-5332.8 614.884 -159.164
-5316.67 131.216 -142.181
-5635.17 869.059 -178.085
-5626.79 791.035 -190.399
-5626.82 713.258 -190.109
-5414.68 688.754 -160.736
-5348.26 1934.5 -235.702
-5348.26 1934.5 -235.702
-5454.19 1844.12 -260.391
-5641.72 1786.82 -289.154
-5641.72 1786.82 -289.154
-5183.51 1708.73 -317.062
-5003.96 1696.39 -297.821
-5150.75 1671.83 -323.684
-5069.27 1643.28 -304.29
-5069.27 1643.28 -304.29
-5150.66 1626.87 -324.661
-5093.7 1569.4 -309.478
-5454.18 1520.47 -260.421
-5666.48 1901.6 -273.59
-5658.18 1467.15 -285.156
-5199.93 1794.78 -313.278
-5478.44 2590.08 -267.44
-5494.94 2483.63 -262.939
-5625.69 2417.98 -271.469
-5429.84 2360.68 -240.02
-5429.84 2360.68 -240.02
-5331.82 2254.24 -239.486
-5258.29 2205.08 -229.522
-5011.94 2114.42 -307.037
-5167.06 2319.37 -321.075
-5134.32 2253.64 -327.575
-5134.32 2253.64 -327.575
-4674.69 1572.82 -461.38
-4674.69 1572.82 -461.38
-4545.38 1454.5 -349.35
-4602.63 2081.31 -347.229
-4497.45 2069.49 -257.232
-4407.85 1893.31 -229.568
-4962.99 1872.66 -297.454
-4962.99 1872.66 -297.454
-4300.37 1823.2 -325.409
-4357.64 1794.49 -323.028
-4905.93 1766.11 -283.279
-4905.93 1766.11 -283.279
-4301.54 1725.22 -222.824
-4749.87 1614.23 -350.524
-4749.49 1495.62 -354.217
-4594.59 1487.34 -338.394
-4905.98 1962.83 -282.836
-4326.06 1659.74 -227.371
-4326.06 1659.74 -227.371
-4782.16 1548.61 -380.523
-4333.22 1495.51 -317.672
-4333.22 1495.51 -317.672
-4676.17 1429.64 -356.704
-4676.17 1429.64 -356.704
-4765.95 1413.45 -367.919
-4765.95 1413.45 -367.919
-4479.18 1474.63 -424.087
-4626.07 1409.03 -448.471
-4955.96 2778.9 -207.214
-4415.84 2692.45 -238.937
-4390.6 2646.84 -314.209
-4628.21 2344.01 -265.213
-4897.77 2188.37 -275.833
-4439.38 2114.12 -325.668
-4595.57 2770.23 -256.485
-4553.76 2712.3 -336.685
-4546.62 2688.34 -246.734
-4481.28 2577.71 -240.417
-4334.11 2565.38 -236.16
-4381.96 2535.98 -329.498
-4317.74 2532.58 -239.486
-4293.16 2479.35 -235.58
-4383.36 2360.55 -224.838
-4628.16 2171.89 -265.655
-5528.92 2037.32 -173.95
-5406.54 1955.43 -152.969
-5398.44 1779.15 -144.928
-5087.96 2754.9 -117.965
-5365.6 2271.14 -152.191
-5365.6 2271.14 -152.191
-5202.28 2738.47 -130.401
-4335.26 2545.54 -133.85
-4465.76 2791.32 -162.857
-4408.85 2434.89 -129.089
-3570.92 577.374 -517.563
-3619.79 474.914 -542.175
-3824.15 450.424 -542.862
-3660.68 380.784 -542.923
-4069.87 167.891 -485.107
-3692.5 646.824 -637.268
-4144.5 634.965 -392.196
-3562.61 515.853 -529.831
-3873.13 462.678 -552.017
-4152.53 446.478 -401.168
-3652.9 442.364 -531.326
-3587.65 434.182 -510.284
-4233.99 364.59 -406.326
-4079.16 294.947 -390.136
-3570.2 278.482 -617.157
-4226.17 237.589 -395.309
-3635.78 172.154 -542.572
-3783.02 147.487 -562.896
-4201.27 57.4173 -394.821
-3915.82 -16.3436 -369.72
-3856.73 642.858 -555.862
-3767.11 642.884 -529.052
-3693.54 499.422 -534.591
-4053.71 458.744 -468.17
-3726.33 425.88 -527.145
-3799.43 417.606 -558.975
-3734.12 323.451 -538.604
-3980.14 319.459 -473.587
-3815.95 266.162 -554.001
-3652.63 253.915 -534.103
-3897.43 245.587 -558.609
-4094.59 151.526 -469.116
-4022.04 557.286 -372.833
-4201.49 524.327 -410.675
-3840.37 393.113 -559.25
-4168.92 245.799 -397.613
-4152.48 262.166 -401.687
-4013.65 1069.28 -385.849
-3972.11 962.451 -464.523
-3914.82 954.181 -453.201
-3563.07 814.842 -506.622
-3906.09 778.005 -542.785
-3604.63 749.454 -426.696
-4095.53 692.294 -386.673
-3858.38 1339.5 -373.993
-3719.52 1331.53 -358.398
-4029.79 1281.99 -384.796
-3645.23 1216.34 -444.885
-3914.61 1183.69 -473.632
-3564.62 1155.27 -324.325
-3564.62 1155.27 -324.325
-4005.56 1126.5 -377.411
-4054.5 1118.28 -387.222
-3620.79 1089.47 -439.651
-4144.22 978.762 -395.05
-3800.34 913.329 -457.885
-4003.67 884.369 -579.208
-4036.86 855.847 -494.781
-3758.85 847.647 -540.741
-3858.02 782.322 -451.019
-3956.87 769.924 -383.285
-3898.58 721.08 -455.246
-3898.58 721.08 -455.246
-3939.45 696.255 -456.329
-3825 692.214 -460.785
-3677.23 696.194 -537.552
-3654.29 1364.13 -351.165
-3637.95 1355.98 -354.263
-4054.57 1101.91 -386.49
-4226.08 1012.15 -396.179
-4144.38 921.749 -393.386
-3571.77 896.964 -434.86
-3669.2 823.029 -528.473
-4152.47 696.36 -401.779
-4152.47 696.36 -401.779
-4185.36 999.529 -393.417
-3891.73 794.407 -360.946
-3285.13 679.66 -511.642
-3285.13 679.66 -511.642
-2982.54 622.355 -556.015
-3448.78 614.18 -509.597
-3464.11 577.321 -609.42
-3325.01 556.693 -597.244
-3390.48 540.304 -601.562
-3211.04 524.127 -583.008
-3244.36 503.91 -476.776
-3244.36 503.91 -476.776
-3300.85 499.682 -589.203
-3089.13 434.308 -483.902
-3056.09 409.416 -568.985
-2908.47 385.006 -627.868
-2973.92 376.987 -553.024
-3505.69 352.2 -510.513
-2925.57 352.191 -541.504
-2999.14 302.904 -549.911
-3424.03 196.381 -511.902
-3326 163.495 -494.064
-2858.82 155.492 -644.577
-2858.82 155.492 -644.577
-2940.04 106.137 -665.909
-3236.42 667.562 -485.321
-3194.45 487.172 -588.913
-2917.11 466.587 -555.633
-3268.88 458.661 -481.048
-3138.37 425.832 -486.175
-2876.74 425.855 -549.453
-2876.74 425.855 -549.453
-3505.75 413.607 -509.933
-3269.09 348.134 -478.897
-2843.66 343.749 -541.397
-3047.67 303.014 -563.904
-2900.03 290.595 -641.769
-2900.03 290.595 -641.769
-2998.62 261.92 -574.157
-3046.4 253.654 -670.746
-3055.75 114.729 -572.525
-3383.09 106.483 -511.642
-3047 663.058 -664.459
-2925.27 659.145 -544.647
-3162.66 593.784 -492.904
-2900.8 589.591 -539.871
-2934.26 524.056 -449.981
-3448.57 413.577 -511.779
-3448.57 413.577 -511.779
-3048.6 376.714 -460.663
-3350.55 343.991 -498.138
-3105.01 237.418 -560.226
-3105.01 237.418 -560.226
-3326.09 65.5847 -493.133
-2949.62 49.0526 -565.078
-2842.84 49.0624 -644.18
-3121.86 499.542 -491.18
-3203.78 376.641 -491.348
-3497.62 180.134 -520.37
-3203.92 114.954 -489.837
-2851.72 1199.51 -550.43
-2975.05 1191.57 -466.125
-2975.05 1191.57 -466.125
-2966.9 872.229 -458.13
-3498.55 794.612 -418.228
-3498.55 794.612 -418.228
-3391.18 700.333 -501.617
-3065.47 1372.33 -377.105
-2859.73 1289.61 -541.076
-3408.43 1191.87 -414.764
-3408.43 1191.87 -414.764
-3065.65 1110.01 -375.183
-3219.84 962.293 -490.982
-3359.75 958.458 -402.267
-3506.22 909.218 -431.091
-2861.4 856.074 -354.217
-3358.69 794.47 -506.027
-3146.47 794.392 -494.629
-3546.52 765.764 -511.978
-3464.55 753.417 -530.807
-3195.36 696.151 -486.252
-3416.87 1388.46 -401.138
-2934.31 1330.59 -449.463
-3237.1 1327.11 -385.071
-3023.84 1314.41 -477.508
-3506.49 1290.13 -428.222
-3318.73 1290.23 -402.725
-2933.46 1265.07 -552.215
-3113.91 1122.05 -466.842
-3449.42 1068.99 -414.657
-3270.41 1061.06 -297.638
-3514.8 1044.43 -416.076
-3089.33 1003.24 -463.196
-3326.46 999.381 -414.978
-3147.07 970.718 -394.973
-3261.54 921.596 -390.32
-2958.61 802.64 -470.413
-3064.67 741.208 -478.927
-2868.82 700.3 -445.114
-3203.45 933.781 -494.781
-2942.3 1064.81 -459.167
-3450.23 811.201 -313.69
-3450.23 811.201 -313.69
-3104.01 1146.11 -678.283
-3916.71 1483.32 -269.088
-3768.73 2097.52 -347.107
-3768.73 2097.52 -347.107
-4178.98 2057.25 -222.152
-3670.82 2052.4 -346.084
-4096.41 1847.98 -286.651
-3621.76 1818.91 -341.629
-4218.88 1757.72 -306.06
-4186.18 1622.47 -312.408
-4128.83 1536.44 -315.658
-3867.51 1536.64 -280.166
-3826.74 1503.79 -277.771
-3826.74 1503.79 -277.771
-4047.2 1987.2 -297.683
-4162.64 1963.08 -207.046
-4031.12 1958.59 -279.892
-4022.84 1942.15 -291.656
-4080.58 1921.72 -284.439
-4006.38 1897.07 -295.944
-3998.33 1876.62 -287.124
-4038.98 1823.41 -290.664
-3941.27 1753.69 -273.101
-4055.62 1720.91 -284.5
-3989.76 1720.91 -301.925
-3621.67 1478.93 -342.575
-4128.02 1421.44 -396.652
-3874.92 1769.65 -368.85
-4217.75 1441.96 -408.462
-4136.89 2187.96 -306.091
-3990.05 2474.77 -298.904
-4006.43 2310.87 -295.44
-4178.93 2270.29 -222.717
-3727.94 2245.03 -345.031
-3981.91 2220.72 -291.092
-3826.74 2188.05 -277.847
-4227.92 2172.11 -213.958
-4260.85 2393.41 -205.398
-4236.18 2352.33 -220.642
-3654.3 2220.36 -351.043
-4187.49 2196.63 -208.13
-3842.15 2220.28 -376.007
-3874.88 2564.38 -369.293
-2876.02 2071.68 -557.19
-2974.26 2051.17 -568.084
-3187.21 2006.72 -478.363
-2992.19 2010.07 -473.16
-3047.82 2001.98 -562.408
-2892.82 1952.95 -548.889
-2852.14 1912.45 -452.026
-2852.14 1912.45 -452.026
-2916.46 1748.78 -543.701
-3269.15 1576.46 -478.348
-2876.08 1576.13 -556.473
-3310.5 1511.25 -414.306
-2990.67 1961.09 -564.132
-2990.67 1961.09 -564.132
-2942.79 1961.55 -453.995
-3048.65 1941.09 -460.129
-2925.31 1863 -544.22
-3219.94 1854.96 -489.959
-3440.32 1777.15 -509.247
-3441.25 1699.79 -406.982
-3081.94 1421.24 -372.482
-3047.9 2083.93 -561.523
-2892.64 2018.46 -550.72
-3268.96 2002.39 -480.224
-3268.96 2002.39 -480.224
-3130.11 1953.36 -479.4
-3064.18 1862.84 -558.853
-3056.61 1801.85 -470.031
-3391.5 1732.16 -498.306
-3187.07 1732.25 -479.751
-2983.11 1732.43 -456.253
-2900.7 1625.69 -540.909
-3293.39 1601.04 -499.756
-3023.29 1494.35 -558.166
-3023.29 1494.35 -558.166
-2884.39 1445.24 -543.884
-2958.5 1404.63 -471.634
-3349.07 1841.96 -680.45
-2975 1793.87 -466.675
-3417.35 1442.11 -322.006
-3368.55 2753.12 -310.608
-3326.68 2654.01 -412.719
-3204.38 2654.23 -391.891
-3277.95 2650.13 -386.459
-3129.84 2264.5 -482.269
-2982.98 2133.55 -476.394
-3458.58 2769.44 -319.488
-3458.58 2769.44 -319.488
-3334.32 2727.23 -500.274
-3384.49 2716.19 -311.645
-3228.84 2695.14 -396.972
-3163.31 2621.23 -392.929
-3065.5 2621.49 -376.724
-3278.96 2367.58 -375.915
-3064.87 2362.83 -476.822
-3015.72 2362.86 -469.223
-2893.31 2354.77 -449.783
-3138.15 2186.69 -488.479
-3293.39 2125.26 -499.847
-3293.39 2125.26 -499.847
-2934.21 2125.46 -450.561
-3319.37 2720.24 -321.716
-2974.91 2481.65 -467.651
-3286.17 2465.8 -393.554
-3286.17 2465.8 -393.554
-3065.49 2465.83 -376.846
-3130.74 2432.92 -398.147
-3105.69 2322.02 -459.64
-3024.05 2293.23 -475.311
-3032.19 2215.5 -464.615
-2966.55 2215.4 -461.776
-3309.77 2199.02 -496.2
-3244.32 2158 -495.804
-3366.66 2669.75 -515.823
-2861.85 2327.12 -274.185
-3042.11 2278.09 -266.983
-4130.4 2036.81 -194.412
-4130.4 2036.81 -194.412
-4064.73 1729.49 -191.36
-3926.3 1646.91 -170.562
-4105.6 2409.83 -192.657
-4195.5 2213.31 -199.142
-4105.6 2118.84 -192.657
-4072.79 2491.78 -200.027
-5135.47 3323.69 -227.417
-5254.3 3284.58 -531.082
-5266.58 3471.51 -218.063
-5135.73 3237.73 -224.746
-5184.55 4188.51 -235.9
-4480.79 3274.49 -263.458
-4856.85 3122.38 -292.846
-4595.56 4196.28 -256.668
-4709.89 3950.36 -268.509
-4383.3 3557.2 -225.54
-5130.14 3284.75 -17.3946
-5365.6 3250.8 -152.175
-5203.32 3202.42 -49.2091
-5316.65 3177.09 -142.425
-5087.94 3291.95 -118.042
-5087.94 3291.95 -118.042
-5644.64 3235.1 -84.9604
-5193.98 3193.48 -141.937
-5422.91 3152.35 -149.856
-5561.79 4115.77 -166.427
-5029.83 4061.8 -199.63
-5610.92 3873.73 -174.377
-5479.92 3923.03 -164.749
-5479.92 3923.03 -164.749
-5087.98 4140.59 -117.66
-4794.13 3136.16 -84.7469
-4661.74 3053.64 -178.695
-4661.96 2832.29 -176.605
-4367.95 3275.37 -127.884
-4629.2 3184.79 -165.329
-4769.44 3169.08 -81.9851
-4711.11 3115.04 -166.412
-4711.11 3115.04 -166.412
-4825.2 2910.11 -198.898
-4441.48 2877.55 -141.632
-4875.39 3300.15 -106.887
-4752.95 3259.3 -86.3338
-4849.78 3234.38 -184.951
-4849.78 3234.38 -184.951
-4719.18 3168.51 -174.926
-4694.53 3020.84 -171.875
-4613.07 2967.7 -151.809
-4727.46 2951.25 -163.406
-4661.86 2942.99 -177.597
-4719.19 2934.8 -174.804
-4531.38 2873.42 -148.498
-4434.3 3304.59 -51.6506
-4875.39 3263.28 -106.994
-4924.63 3574.97 -96.1299
-5625.64 4540.92 -271.987
-5078.62 4274.88 -210.983
-5248.83 4367.96 -323.669
-5077.21 5019.51 -314.086
-5199.92 5277.78 -313.507
-5199.92 5277.78 -313.507
-5428.43 4998.88 -342.193
-4300.39 4932.86 -325.348
-4300.39 4932.86 -325.348
-4300.46 4740.43 -324.569
-4382.19 4711.82 -327.27
-4472.97 4556.96 -252.38
-4856.77 4392.75 -293.655
-4496.52 4293.76 -338.836
-4587.49 4589.74 -248.138
-4276.11 4388.23 -304.184
-4317.74 4893.08 -239.349
-4971.09 4704.11 -305.664
-4628.15 4704.43 -265.869
-4462.85 5607.65 -427.185
-4315 5348.59 -502.899
-4308.13 5644.19 -427.78
-4308.13 5644.19 -427.78
-4299.26 5488.81 -427.414
-4413.76 5382.26 -422.744
-4521.07 5363.05 -342.956
-4364.59 5349.83 -415.42
-4537.35 5236.1 -340.515
-4463.72 5203.16 -346.099
-4332.14 5583.1 -419.25
-4299.28 5177.48 -427.23
-4519.81 5107.7 -445.907
-4495.33 5472.28 -441.04
-4318.05 4999.85 -218.277
-4674.95 5291.95 -458.755
-4873.16 5122.2 -290.069
-4740.47 5193.87 -444.992
-5512.52 4775.53 -177.581
-5202.39 4247.14 -129.318
-5202.39 4247.14 -129.318
-5569.78 5497.01 -175.689
-5659.64 5402.73 -183.212
-3670.64 3305.96 -347.931
-3745.08 2983.09 -260.132
-3613.59 3461.72 -333.954
-3704.24 3302.62 -258.575
-3580.85 3236.38 -340.896
-3580.85 3236.38 -340.896
-3776.91 2974.12 -354.629
-3776.91 2974.12 -354.629
-3661.54 4239.02 -442.016
-3874.91 4207.12 -369.003
-3605.64 4182.93 -324.02
-3613.92 4108.64 -330.551
-4217.81 3965.16 -407.959
-4217.81 3965.16 -407.959
-3889.46 3947.24 -549.057
-3646.23 3711.62 -342.346
-3646.23 3711.62 -342.346
-3253.39 3493.76 -401.062
-3253.39 3493.76 -401.062
-3081.94 3485.74 -372.543
-3089.29 3370.29 -463.714
-3163.64 3284.96 -389.374
-3450.3 3261.11 -312.942
-3523.66 3220.09 -324.066
-2876.95 3210.72 -453.293
-3107.17 3171.19 -276.016
-3107.17 3171.19 -276.016
-2901.5 3161.5 -457.306
-3023.6 3120.22 -480.026
-3073.64 3006.38 -384.796
-3146.49 3497.23 -475.692
-3351.27 3121.05 -416.382
-2999.37 2825.61 -472.641
-3203.53 3210.42 -494.034
-3156.04 2957.97 -301.01
-3156.04 2957.97 -301.01
-2845.62 3015.56 -257.339
-3015.79 4127.33 -562.256
-3015.79 4127.33 -562.256
-3129.36 4089.89 -580.551
-2933.04 4028.68 -556.64
-2982.46 3836.16 -556.9
-2876.76 3779.73 -455.368
-3376.02 4231.16 -399.872
-3171.96 4202.31 -395.569
-2974.06 4196.36 -570.297
-2974.06 4196.36 -570.297
-2948.98 4118.53 -571.747
-3449.46 4091.8 -414.261
-2892.46 4028.67 -552.688
-3367.01 3988.57 -493.622
-2918.26 3976.47 -449.737
-3048.7 3951.9 -459.64
-2860.33 3881.5 -534.683
-3236.32 3837.03 -486.389
-3121.05 3811.71 -574.295
-3055.87 3770.64 -571.289
-2982.48 3729.79 -556.64
-3055.37 3713.15 -576.645
-3252.62 3689.61 -483.535
-2875.95 3672.39 -557.861
-3007.83 3566.96 -458.633
-3121.66 3554.07 -493.271
-2908.92 4163.86 -548.126
-3080.15 4102.04 -578.186
-3269.24 4090.99 -477.401
-3342.35 4082.56 -509.369
-3236.36 3984.48 -485.916
-2851.99 3820.06 -547.546
-3138.23 3718.27 -487.594
-3325.93 3697.63 -513.382
-3040.17 3656.88 -474.441
-3138.03 3648.54 -489.807
-2925.73 3636.6 -446.213
-2925.73 3636.6 -446.213
-3463.15 4060.12 -711.731
-4097.46 3213.06 -202.957
-4040.23 3188.58 -186.538
-4254.48 3526.07 -34.2251
-3613.81 4895.63 -331.649
-4137.19 4851.23 -303.177
-4193.26 4776.12 -403.885
-3834.16 4702.7 -366.623
-3834.16 4702.7 -366.623
-3588.17 4578.98 -431.183
-3654.31 4530.85 -350.921
-3956.44 4800.95 -387.817
-4136.1 4333.87 -405.151
-3695.23 4276.83 -351.715
-3724.38 4338.26 -731.003
-3580.71 5513.94 -342.361
-3621.6 5489.36 -343.322
-3621.6 5489.36 -343.322
-4111.64 5407.2 -386.032
-4063.53 5403.44 -367.95
-4046.49 5366.16 -378.036
-4046.49 5366.16 -378.036
-4118.98 5569.86 -489.12
-4217.71 5562.78 -408.92
-4144.74 5522.05 -389.816
-3678.04 5508.7 -437.332
-3768.84 5497.73 -346.054
-3768.84 5497.73 -346.054
-3580.3 5467.95 -420.517
-4021.83 5460.62 -375.198
-3752.41 5395.24 -350.006
-3752.41 5395.24 -350.006
-3703.71 5383.17 -337.768
-3851.46 5347.38 -261.84
-3736.08 5337.9 -353.027
-3621.77 5325.65 -341.613
-3621.77 5325.65 -341.613
-4046.99 5317.13 -354.66
-4136.07 5226.83 -405.502
-4053.75 5221.85 -467.971
-3597.18 5202.77 -337.921
-3996.43 5168.54 -470.993
-3563.67 5160.82 -426.59
-3800.67 5152.3 -454.605
-4170.04 5080.78 -295.303
-3588.18 5607.04 -431.183
-3932.13 5546.68 -367.019
-4225.97 5509.26 -397.491
-3907.52 5464.81 -363.495
-3710.63 5455.3 -450.302
-3695.12 5301.01 -352.859
-4111.75 5284.31 -384.964
-3980.85 5284.27 -393.28
-3678.03 5226.12 -437.362
-3727.93 5030.69 -345.23
-3637.14 4968.13 -436.554
-3571.81 4972.17 -434.509
-4022.54 5423.51 -386.062
-3660.66 5142.87 -543.274
-4185.11 5603.61 -396.53
-4185.11 5603.61 -396.53
-3260.79 4733.79 -491.226
-3040.3 4696.98 -473.022
-3293.39 4680.5 -499.878
-2966.67 4647.81 -479.385
-2982.92 4492.33 -477.066
-3097.51 4484.22 -470.84
-3122.78 4911.2 -373.932
-2893.03 4869.13 -452.789
-3031.71 4778.92 -469.635
-3154.75 4697.11 -482.528
-2983.05 4697.3 -475.677
-3228.11 4664.42 -479.034
-3113.88 4639.82 -467.209
-2967.65 4529.99 -375.366
-3326.18 4525.04 -492.279
-3376.24 4501.55 -397.583
-3302.4 4361.94 -405.792
-3302.4 4361.94 -405.792
-2959.43 4919.57 -353.836
-2974.99 4828.17 -466.736
-2974.99 4828.17 -466.736
-3261.63 4821.01 -389.435
-3350.37 4782.81 -500.137
-3024 4647.9 -475.83
-3252.61 4582.36 -483.597
-2843.49 4425.77 -543.289
-3195.34 4352.86 -486.511
-3203.69 4930.44 -492.279
-2974.24 4595.37 -455.887
-3236.43 4480.02 -485.107
-3089.06 4595.28 -465.988
-3049.2 5087.05 -379.623
-3008.31 5087.35 -378.738
-3106.02 5020.75 -456.36
-3523.55 5596.03 -343.826
-3360.19 5571.64 -323.41
-3254.13 5555.5 -300.262
-3254.13 5555.5 -300.262
-3499.07 5542.79 -338.821
-3548.48 5497.97 -325.409
-3287.6 5466.5 -211.288
-3303.04 5301.13 -324.814
-3449.38 5250.87 -415.1
-3204.23 5152.74 -393.448
-2885.81 5034.17 -359.817
-3400.46 5521.25 -405.075
-3319.39 5370.86 -321.533
-3490.95 5178.26 -330.673
-3490.95 5178.26 -330.673
-3531.86 5116.82 -331.451
-3343.19 4972.44 -407.821
-3156.01 5194.85 -301.468
-2279.14 646.49 -689.514
-2671.94 561.034 -535.309
-2671.94 561.034 -535.309
-2548.92 564.725 -598.373
-2499.16 413.305 -711.181
-2704.24 310.965 -627.06
-2508.8 221.057 -589.523
-2736.75 106.189 -622.116
-2401.32 683.592 -696.38
-2459.48 667.384 -526.977
-2835.38 634.52 -553.726
-2237.78 597.376 -756.134
-2451.09 573.21 -597.473
-2426.54 532.301 -598.114
-2827.02 515.039 -547.897
-2810.78 474.69 -550.216
-2793.61 417.599 -637.527
-2238.55 409.303 -671.539
-2238.55 409.303 -671.539
-2409.53 229.261 -684.662
-2801.85 212.905 -644.485
-2801.85 212.905 -644.485
-2311.68 212.926 -684.234
-2810.35 147.307 -630.02
-2810.35 147.307 -630.02
-2777.71 73.7504 -636.23
-2761.33 24.7354 -625.763
-2524.25 683.469 -614.715
-2352.54 638.463 -685.028
-2728.56 622.156 -633.438
-2156.56 613.801 -672.729
-2811.54 581.605 -448.028
-2180.51 548.368 -759.613
-2500.03 532.138 -607.147
-2679.72 483.002 -622.726
-2614.33 458.489 -617.538
-2466.76 384.641 -696.09
-2180.51 380.528 -759.598
-2393.62 368.522 -683.533
-2834.8 294.689 -635.086
-2279.06 270.086 -690.43
-2679.56 114.679 -624.405
-2679.56 114.679 -624.405
-2646.94 679.507 -611.603
-2500.03 507.464 -607.147
-2368.19 278.221 -784.088
-2728.81 196.426 -630.768
-2286.43 147.433 -783.005
-2500.25 114.724 -604.767
-2336.96 523.812 -585.129
-2336.96 523.812 -585.129
-2548.91 491.276 -617.401
-2286.51 98.2342 -782.15
-2515.2 0.0320211 -786.712
-2515.2 0.0320211 -786.712
-2762.02 1355.32 -524.307
-2713.04 1354.95 -533.813
-2360.72 1174.53 -692.795
-2417.96 1092.81 -689.804
-2442.95 966.062 -593.994
-2385.23 839.04 -678.116
-2459.1 814.552 -606.994
-2410.25 798.315 -600.952
-2336.34 793.804 -686.981
-2737.29 785.978 -522.125
-2172.27 744.669 -771.667
-2230.02 736.58 -667.557
-2361.3 1346.69 -591.339
-2409.56 1334.22 -684.326
-2581.66 1256.71 -610.031
-2499.48 1244.04 -707.733
-2172.8 1239.96 -670.425
-2762.15 1170.98 -522.903
-2647.55 1162.79 -529.587
-2230.4 1158.09 -663.544
-2810.96 1150.44 -548.233
-2271.2 1141.91 -665.054
-2197.3 1101 -674.972
-2270.83 1059.98 -669.052
-2213.52 1060.18 -672.821
-2787.28 1027.79 -426.651
-2278.89 1027.21 -692.215
-2475.75 986.491 -600.326
-2705.39 958.298 -445.007
-2360.71 908.499 -692.825
-2565.43 880.067 -612.137
-2639.48 835.331 -520.752
-2139.47 781.531 -760.849
-2672.06 732.831 -534.012
-2507.76 1379.14 -695.419
-2287.19 1322 -679.55
-2679.81 1305.83 -621.75
-2679.81 1305.83 -621.75
-2344.47 1289.21 -676.132
-2754.26 1273.19 -531.051
-2540.77 1199.35 -609.359
-2164.72 1174.64 -661.59
-2385.66 1068.37 -597.397
-2213.62 965.911 -671.676
-2311.67 761.286 -684.341
-2311.67 761.286 -684.341
-2418.94 1179.21 -584.244
-2285.35 900.629 -794.662
-1812.45 409.05 -920.7
-1436.44 323.025 -977.844
-1436.44 323.025 -977.844
-1485.34 155.441 -987.594
-1534.55 552.071 -974.64
-1787.85 441.701 -917.435
-1697.63 327.412 -994.537
-1501.95 204.454 -981.003
-1583.28 654.013 -986.221
-1542.63 601.109 -983.459
-1542.63 601.109 -983.459
-1493.57 310.778 -975.372
-1436.56 220.801 -976.517
-2066.29 515.551 -748.871
-1551.56 245.696 -885.864
-1600.23 196.28 -878.906
-2033.24 662.768 -836.593
-1985.08 658.892 -645.904
-1673.65 376.134 -907.12
-1861.72 237.161 -830.139
-1756.03 237.45 -804.443
-2123.3 73.6841 -762.42
-1820.9 32.6326 -829.132
-1665.41 678.968 -899.994
-1853.87 482.737 -818.893
-2098.94 253.689 -742.279
-2090.68 106.409 -754.593
-1960.13 106.4 -742.34
-1861.73 89.9853 -830.017
-1681.83 -8.20531 -895.538
-1992.59 507.313 -756.836
-2123.62 376.518 -759.018
-1976.5 261.962 -738.464
-1731.5 261.68 -722.961
-1927.49 -16.3311 -734.573
-2008 817.936 -936.188
-1714.61 1288.7 -809.921
-1779.87 1125.09 -830.292
-1836.6 1108.65 -832.519
-2008.64 1067.86 -756.485
-2008.64 1067.86 -756.485
-2115.33 949.395 -752.518
-1853.99 1378.93 -740.494
-1771.96 1362.27 -805.42
-1543.32 1313.25 -801.025
-1690.62 1260.26 -722.443
-1756.24 1223.46 -705.52
-1551.96 1211.26 -706.589
-1747.45 1165.81 -801.025
-1575.61 1165.65 -895.172
-2033.61 1112.92 -755.92
-1788.33 1043.39 -815.689
-1674.14 1010.39 -804.932
-1649.14 957.152 -902.862
-1575.24 944.75 -879.837
-1534.86 932.56 -893.463
-1935.6 900.191 -723.907
-1510.34 883.392 -889.267
-1861.59 769.153 -831.634
-1649.56 1395.1 -801.453
-1649.56 1395.1 -801.453
-1600.55 1321.39 -797.79
-1665.79 1170.01 -818.481
-2106.9 1112.99 -766.571
-1689.92 1079.71 -904.281
-2058.07 1059.77 -741.669
-1853.96 1063.85 -740.875
-1951.86 1035.24 -754.806
-1878.06 855.038 -826.66
-1878.06 855.038 -826.66
-1812.88 797.723 -819.595
-1746.99 805.744 -902.618
-1747.99 916.653 -717.85
-2075.43 1219.96 -554.55
-2075.43 1219.96 -554.55
-1535.59 1219.5 -691.116
-2025.42 1252.09 -748.321
-2154.18 1504.09 -965.988
-2802.99 1977.61 -538.391
-2377.45 1813.32 -590.027
-2336.65 1788.99 -588.455
-2582.68 1678.71 -504.577
-2582.68 1678.71 -504.577
-2524.89 1576.26 -607.818
-2524.89 1576.26 -607.818
-2754.74 2100.93 -431.732
-2582.35 2026.77 -507.995
-2295.74 1993.53 -587.951
-2246.9 1973.1 -582.001
-2189.73 1923.96 -584.183
-2442.75 1862.42 -596.13
-2442.75 1862.42 -596.13
-2148.44 1698.57 -664.352
-2541.5 1686.87 -506.836
-2475.41 1674.15 -603.851
-2819.13 1617.09 -537.246
-2819.13 1617.09 -537.246
-2785.78 1608.75 -645.019
-2418.48 1592.43 -589.218
-2729.43 1552.09 -530.014
-2818.36 1448.94 -639.374
-2588.63 1436.42 -706.207
-2222.43 2063.19 -577.148
-2304.08 2054.99 -594.086
-2410.24 2005.77 -601.12
-2173.4 2001.8 -568.344
-2557.77 1973.47 -523.178
-2467.31 1796.94 -614.303
-2786.46 1780.99 -543.792
-2279.58 1772.53 -575.271
-2459.07 1625.15 -607.3
-2459.07 1625.15 -607.3
-2687.76 1494 -631.897
-2770.06 1486.25 -533.401
-2352.54 1477.45 -685.043
-2728.56 1989.37 -633.423
-2189.83 1473.49 -563.995
-2639.68 2812.91 -518.57
-2164.4 2770.51 -684.112
-2247.38 2702.27 -576.919
-2253.87 2586.42 -679.077
-2754.39 2498.05 -435.455
-2754.39 2498.05 -435.455
-2272.47 2488.9 -575.149
-2230.56 2488.95 -585.419
-2230.56 2488.95 -585.419
-2221.48 2414.53 -682.831
-2410.69 2317.41 -501.266
-2205.5 2811.56 -682.403
-2794.27 2796.38 -555.298
-2671.68 2775.75 -538.04
-2606.79 2751.33 -513.214
-2647.55 2726.78 -529.602
-2418.59 2718.23 -588.043
-2132.77 2681.52 -564.85
-2655.88 2636.65 -535.736
-2655.88 2636.65 -535.736
-2787.07 2612.66 -447.738
-2737.32 2542.48 -540.695
-2312.3 2497.17 -582.29
-2181.45 2484.85 -577.53
-2540.93 2476.58 -607.651
-2132.06 2455.7 -668.304
-2386.52 2436.38 -493.057
-2213.52 2361.45 -672.775
-2230.44 2271.87 -567.55
-2156.52 2271.42 -673.187
-2607.03 2210.98 -510.711
-2737.36 2194.56 -540.283
-2500.61 2133.22 -525.131
-2689.2 2125.55 -427.78
-2205.98 2726.34 -581.756
-2205.98 2726.34 -581.756
-2508.75 2685.89 -514.236
-2214.28 2636.11 -569.137
-2377.62 2587.16 -588.257
-2214.22 2570.89 -569.748
-2467.88 2444.33 -513.29
-2819.74 2412.05 -455.536
-2499.9 2394.79 -608.566
-2418.48 2386.53 -589.142
-2525.16 2309.26 -510.193
-2426.52 2284.13 -598.465
-2672.04 2190.42 -534.24
-2157.03 2169.67 -572.052
-2581.82 2546.28 -608.23
-2353.24 2284.24 -582.397
-2353.24 2284.24 -582.397
-2403.74 2121.16 -404.342
-2761.38 2349.59 -625.244
-2826.55 2333.27 -646.927
-2042.95 2083.79 -559.219
-2123.93 1854.1 -679.169
-1445.7 1665.13 -764.755
-1445.7 1665.13 -764.755
-1625.37 1657.21 -715.942
-1682.68 1518.23 -712.067
-2108.13 2030.45 -566.788
-2033.79 1878.3 -658.035
-1666.2 1870.08 -717.056
-1805.5 1862.26 -629.364
-1649.92 1861.77 -719.879
-1649.92 1861.77 -719.879
-1633.39 1853.72 -725.51
-2091.34 1804.96 -651.611
-2115.79 1739.44 -670.914
-2099.32 1682.09 -661.545
-1845.99 1599.98 -730.758
-1478.13 1558.59 -794.067
-1837.53 1550.69 -725.982
-1551.84 1509.98 -707.855
-1494.91 1510.12 -688.339
-1805.15 1403.57 -729.828
-1584.57 2042.01 -700.317
-1609.14 1984.41 -704.056
-1609.14 1984.41 -704.056
-1658.04 1939.62 -709.045
-1510.81 1926.98 -786.88
-1985.22 1845.93 -644.287
-1527.5 1788.29 -701.675
-1584.65 1722.83 -699.509
-1666.29 1673.56 -716.049
-1666.29 1673.56 -716.049
-1486.6 1616.35 -701.294
-1731.51 1436.31 -722.854
-1910.85 2053.89 -741.424
-1894.76 1890.49 -742.187
-1894.76 1890.49 -742.187
-1421.8 1792.45 -675.674
-1421.8 1792.45 -675.674
-1944.95 1744.07 -545.883
-1927.62 1497.67 -733.276
-1927.49 1890.44 -734.665
-1796.55 1767.78 -726.471
-1846 2783.22 -634.201
-1846 2783.22 -634.201
-2082.94 2476.53 -646.225
-2082.94 2476.53 -646.225
-1771.02 2458.97 -834.839
-1502.73 2442.09 -700.043
-2001.49 2242.79 -660.858
-2001.49 2242.79 -660.858
-1960.82 2230.61 -657.944
-1780.8 2140.12 -709.472
-2050.62 2807.67 -649.307
-2050.62 2807.67 -649.307
-2001.32 2811.62 -662.582
-1633.43 2745.65 -725.098
-2108.57 2718.32 -561.981
-1740.4 2693.27 -606.949
-1968.74 2680.85 -649.246
-1731.24 2557.65 -725.769
-2099.35 2533.44 -661.224
-1478.84 2516.76 -688.873
-1821.32 2442.91 -728.103
-1739.68 2410.22 -711.471
-1886.74 2397.57 -732.681
-2107.59 2390.11 -649.139
-1609.25 2328.02 -702.865
-2107.6 2316.57 -649.093
-2001.44 2300.11 -661.362
-1421.62 2254.66 -677.597
-1421.62 2254.66 -677.597
-2100.27 2198.81 -478.882
-1805.15 2177.11 -729.828
-1870.71 2148.69 -636.474
-1723.11 2132.2 -717.392
-2125.12 2125.37 -460.51
-1601.02 2123.83 -695.526
-1445.72 2811.3 -686.6
-1927.83 2803.69 -634.643
-1862.32 2741.61 -727.386
-1699.06 2651.63 -708.053
-2091.64 2648.57 -571.701
-2091.64 2648.57 -571.701
-2017.75 2639.8 -658.218
-1641.49 2618.74 -714.813
-1429.34 2573.92 -690.521
-1429.34 2573.92 -690.521
-1585.01 2512.68 -695.572
-2034.12 2472.08 -654.51
-1862.13 2459.27 -729.385
-1617.29 2410.28 -692.779
-1478.38 2401.95 -713.394
-1960.2 2393.74 -741.577
-1649.91 2287.42 -720.047
-1772.4 2275.13 -723.358
-1617.35 2226.15 -711.563
