ply
format ascii 1.0
comment author: Caleb Adams & Jackson Parker
comment SSRL CV simple PLY writer
element vertex 1819
property float x
property float y
property float z
end_header
-3.65885 3.4829 0.635245
-3.59936 3.28428 0.572451
-3.46086 3.27206 0.567762
-3.89762 3.60988 0.573335
-3.52977 3.70159 0.577768
-3.69509 3.6426 0.56325
-3.47315 3.73959 0.573358
-3.47257 3.73769 0.610521
-3.62037 3.57834 0.568765
-3.55399 3.49512 0.572978
-3.60993 3.50952 0.573048
-3.61043 3.67794 0.564406
-3.61049 3.49953 0.5634
-3.5996 3.67456 0.636843
-3.46233 3.63975 0.597704
-3.51606 3.50547 0.58095
-3.4581 3.9732 0.565918
-3.21051 2.81657 0.5906
-3.28507 2.74299 0.583663
-3.16165 2.86812 0.570882
-2.87339 2.72806 0.575678
-3.05463 2.85719 0.590179
-2.90173 2.77164 0.584469
-3.05159 2.67974 0.573016
-2.99154 2.71367 0.620944
-3.00602 2.84424 0.590955
-2.87148 2.72821 0.604013
-3.1381 2.70706 0.563885
-3.27708 3.09083 0.594325
-3.29307 3.04624 0.590722
-3.31133 3.01007 0.571337
-3.21147 2.91486 0.575992
-3.3901 3.17333 0.580139
-3.26237 3.14571 0.575926
-3.3251 3.08465 0.58289
-3.33568 3.13869 0.579867
-3.2009 3.08755 0.614411
-3.25335 3.17648 0.594988
-3.2022 2.98874 0.575295
-3.38985 3.17113 0.570355
-3.25855 3.14066 0.586828
-3.35054 3.1239 0.588802
-3.29465 3.05109 0.61023
-3.33489 3.13799 0.594615
-3.25668 2.98329 0.612131
-3.22065 3.37798 0.562376
-3.28343 3.23552 0.60679
-3.25147 3.44315 0.584173
-3.17609 3.40858 0.59339
-3.28173 3.40871 0.580856
-3.43087 3.29985 0.579823
-3.18418 3.46291 0.594187
-3.27011 3.46221 0.603311
-3.36147 3.46483 0.578098
-3.38313 3.38153 0.604859
-3.28008 3.33462 0.581012
-3.28142 3.33607 0.594748
-3.1761 3.31312 0.593534
-3.38045 3.29485 0.561779
-3.29274 3.27529 0.59577
-3.28407 3.41099 0.596654
-3.16473 3.22207 0.637054
-3.43234 3.30474 0.59004
-3.43234 3.30474 0.59004
-3.36187 3.46439 0.574061
-3.21761 3.26028 0.621632
-3.03146 3.20082 0.639506
-2.91682 3.02916 0.628955
-2.89187 2.92623 0.613105
-2.90202 3.09549 0.646051
-3.13158 3.07275 0.602122
-3.11651 3.02692 0.564322
-2.8849 3.1696 0.639423
-2.90359 3.09614 0.651834
-3.08493 2.99309 0.61298
-3.08416 2.99131 0.618202
-2.96219 3.01257 0.592919
-3.02173 3.4086 0.590894
-2.98051 3.25696 0.582105
-3.02283 3.25706 0.582652
-2.98711 3.43491 0.596638
-3.02812 3.37065 0.608076
-2.96337 3.35258 0.58986
-2.97337 3.31004 0.616367
-2.87946 3.28032 0.589305
-2.93356 3.27013 0.616457
-3.06353 3.26358 0.606521
-3.06366 3.26475 0.605837
-3.02968 3.47775 0.591064
-3.11472 3.25557 0.594641
-3.01193 3.41526 0.59356
-3.01256 3.41029 0.591971
-3.05387 3.33071 0.594459
-3.02151 3.2657 0.595097
-3.11227 3.22725 0.602701
-3.07974 3.26473 0.591746
-3.13973 3.44049 0.63828
-2.90103 3.23041 0.629509
-2.98621 3.4287 0.611236
-2.88624 3.3081 0.691243
-2.97536 3.30875 0.62989
-3.02901 3.47515 0.5929
-2.59005 2.59296 0.570057
-2.62684 2.6071 0.601534
-2.65766 2.65906 0.581779
-2.58253 2.72983 0.632472
-2.72431 2.71877 0.61214
-2.75111 2.65806 0.587458
-2.70939 2.6333 0.588996
-2.6587 2.91182 0.648884
-2.60666 2.76138 0.646258
-2.65909 2.65447 0.571494
-2.70855 2.63393 0.588867
-2.55474 2.62181 0.611305
-2.31325 2.57628 0.651402
-2.36184 2.37188 0.566266
-2.35511 2.51331 0.582215
-2.38704 2.58715 0.569338
-2.47424 2.54979 0.598518
-2.42071 2.89964 0.650666
-2.51776 2.71042 0.634692
-2.32098 2.72776 0.679713
-2.58065 3.16651 0.611528
-2.73716 3.11435 0.609373
-2.60576 3.01844 0.603907
-2.60502 3.01124 0.617644
-2.8639 2.98852 0.642482
-2.73895 2.9555 0.662672
-2.81451 3.02136 0.653162
-2.6803 3.15353 0.58688
-2.68154 3.15756 0.602386
-2.71146 2.99315 0.618464
-2.7362 3.03776 0.634055
-2.81054 3.36877 0.643467
-2.67141 3.24213 0.615139
-2.85302 3.4859 0.59757
-2.79663 3.27263 0.592841
-2.67655 3.23973 0.589469
-2.83817 3.42858 0.597969
-2.3869 3.06783 0.600998
-2.32786 2.97397 0.647804
-2.45868 3.12841 0.58786
-2.38768 3.0087 0.580809
-2.38874 3.06747 0.59205
-2.51158 3.14766 0.579061
-2.51609 2.93534 0.63239
-2.55439 3.08401 0.609914
-2.55555 3.02053 0.619989
-2.4882 3.00404 0.616894
-2.46796 3.30706 0.603065
-2.33854 3.21179 0.584937
-2.33652 3.2066 0.602205
-2.56808 3.36748 0.589836
-2.32955 3.36602 0.566838
-2.329 3.36659 0.563596
-2.41915 3.21725 0.575358
-2.54265 3.21946 0.584114
-2.37862 3.31193 0.566118
-2.34661 3.46446 0.57656
-2.569 3.37331 0.591916
-2.42015 3.45547 0.564164
-2.57485 3.34307 0.569662
-3.2436 3.75121 0.587121
-3.37278 3.68713 0.640878
-3.35105 3.59126 0.596776
-3.29251 3.75463 0.596713
-3.16686 3.6142 0.604675
-3.30011 3.6061 0.5949
-3.30005 3.60703 0.594707
-3.27858 3.52493 0.571364
-3.31834 3.69831 0.590103
-3.26214 3.65215 0.594764
-3.1862 3.54689 0.595556
-3.2691 3.52033 0.600579
-3.18265 3.54672 0.598455
-3.26416 3.65146 0.588291
-3.18624 4.00185 0.611097
-3.36448 3.8071 0.576099
-3.20259 3.9617 0.577471
-3.20195 3.96744 0.57204
-3.42981 3.80554 0.571083
-3.26764 3.79751 0.586448
-3.30873 3.86201 0.576458
-3.26558 3.79397 0.566008
-3.31091 3.86268 0.571748
-3.37669 3.96482 0.565093
-2.87572 3.72207 0.59631
-2.87651 3.72952 0.598392
-2.87103 3.6936 0.594475
-3.02644 3.531 0.606906
-2.95805 3.7047 0.61803
-2.95713 3.70632 0.626645
-3.09018 3.6772 0.588523
-3.08782 3.62248 0.66523
-3.09156 3.62387 0.626844
-3.03867 3.60169 0.649711
-2.95834 3.55662 0.610145
-2.96518 3.56058 0.654743
-3.07148 3.55228 0.652949
-3.14735 3.76253 0.592798
-3.05724 3.59758 0.624611
-3.05485 3.70307 0.590419
-2.92569 3.77155 0.616807
-3.12033 3.56569 0.593721
-3.06909 3.54904 0.622367
-3.0263 3.6756 0.620101
-2.87658 3.79454 0.619813
-2.87635 3.79177 0.591381
-3.06199 4.039 0.59212
-3.10353 3.9747 0.577661
-2.9984 3.92858 0.602449
-3.10353 3.88226 0.577746
-3.00614 4.04393 0.591461
-3.00614 4.04393 0.591461
-2.90844 3.84774 0.628103
-2.8982 3.99292 0.589232
-2.97274 3.8958 0.591932
-3.0885 3.8727 0.595822
-3.08423 3.87952 0.563524
-2.92185 4.06854 0.590345
-3.1562 3.94904 0.591214
-2.91503 3.93052 0.59199
-2.91934 4.0598 0.60776
-2.91461 3.92669 0.59055
-3.16533 4.25626 0.584198
-3.17011 4.21218 0.581014
-3.21155 4.27831 0.572571
-3.33443 4.24829 0.564171
-3.20249 4.28011 0.57825
-3.21087 4.36702 0.57724
-3.17714 4.38398 0.58316
-3.17809 4.39575 0.574147
-3.23748 4.39445 0.571476
-3.21273 4.45269 0.564807
-3.15353 4.08203 0.566787
-3.15353 4.08203 0.566787
-2.87422 4.22793 0.568868
-2.87236 4.22997 0.58834
-3.07983 4.197 0.592257
-3.15568 4.17406 0.590684
-3.08792 4.26445 0.592443
-3.01427 4.11958 0.592068
-2.89535 4.12324 0.588593
-2.96399 4.10276 0.608814
-2.93348 4.18531 0.614086
-3.11183 4.41109 0.576891
-3.1113 4.41634 0.574666
-3.05982 4.4083 0.56345
-3.06309 4.42273 0.604482
-2.88395 4.40196 0.63246
-2.79586 3.67372 0.589752
-2.76176 3.63135 0.593125
-2.70995 3.73805 0.585859
-2.78279 3.53025 0.61318
-2.78279 3.53025 0.61318
-2.8551 3.58409 0.613573
-2.78769 3.60305 0.605777
-2.84352 3.81197 0.613115
-2.84574 3.91227 0.588418
-2.839 3.82545 0.596614
-2.77951 3.9924 0.589272
-2.69929 3.83792 0.570839
-2.83818 3.82453 0.598267
-2.38272 3.50438 0.589322
-2.7861 4.20336 0.598256
-2.74661 4.19044 0.588701
-2.67177 4.08599 0.602808
-2.79827 4.29961 0.570502
-2.78865 4.21031 0.59325
-2.57311 4.23994 0.585716
-2.45399 4.4045 0.58488
-2.11509 0.204653 0.771722
-2.11489 0.20453 0.769662
-2.21491 0.12667 0.819774
-2.21242 0.12677 0.744507
-2.28873 0.0328017 0.822181
-2.23727 0.31148 0.766563
-2.09286 0.148037 0.822006
-2.10343 0.246666 0.781005
-2.0276 0.148186 0.708229
-2.09926 0.574613 0.694661
-2.13143 0.555213 0.731234
-2.18385 0.572757 0.699569
-2.18097 0.571742 0.672839
-2.07907 0.534736 0.727494
-2.06863 0.511336 0.719889
-2.09411 0.426149 0.713163
-2.01924 0.338863 0.75192
-2.09606 0.328964 0.704222
-2.26376 0.56004 0.708542
-2.18881 0.573228 0.671727
-1.92859 0.304597 0.791551
-1.92711 0.157594 0.811962
-1.75594 0.261881 0.800757
-1.85286 0.197227 0.824159
-1.91229 0.11492 0.800786
-1.91215 0.114603 0.795036
-1.93411 0.15612 0.761548
-1.99381 0.107327 0.823481
-1.99124 0.107265 0.845716
-1.95914 0.0905591 0.847644
-1.97045 0.0990141 0.724919
-1.82188 0.601539 0.716433
-1.74019 0.571714 0.769078
-1.86297 0.539342 0.73436
-1.77022 0.516623 0.746071
-1.98613 0.451539 0.726429
-1.98299 0.383299 0.753325
-1.91956 0.580868 0.728061
-1.90973 0.457842 0.772674
-1.9092 0.459039 0.778206
-1.85938 0.377642 0.786134
-1.86266 0.377755 0.815822
-1.74033 0.572696 0.77574
-1.98215 0.383234 0.750115
-1.91029 0.461171 0.786637
-2.26848 0.687677 0.652662
-2.00053 0.799719 0.671855
-2.20554 0.777804 0.678372
-2.03607 0.761838 0.681447
-2.09284 0.621749 0.697016
-2.23762 0.62211 0.686473
-2.28773 0.622015 0.673791
-2.11792 0.814588 0.648423
-2.01074 0.60255 0.718075
-2.1872 0.820405 0.640583
-2.1872 0.820405 0.640583
-2.18917 0.713413 0.665408
-2.05056 0.654891 0.707578
-2.05056 0.654891 0.707578
-2.22616 0.729555 0.654433
-2.23316 0.72899 0.705474
-2.12352 0.815446 0.686751
-2.21588 0.778977 0.646447
-2.27861 0.689311 0.587924
-2.22231 0.729984 0.678332
-2.23335 0.622902 0.715234
-2.04344 0.920898 0.633525
-2.04254 1.09274 0.638567
-2.28942 1.0972 0.582867
-2.19242 0.897622 0.612601
-2.13427 1.14879 0.606804
-2.0462 1.1454 0.630124
-2.28871 1.00197 0.575412
-2.22702 1.16717 0.612776
-2.01394 1.13264 0.628708
-2.07442 1.01752 0.588376
-2.19308 1.04898 0.613553
-2.10343 1.09278 0.631728
-2.10254 0.992652 0.627023
-2.22632 1.13165 0.621712
-1.8488 0.837456 0.695846
-1.88793 0.834998 0.715628
-1.72421 0.712221 0.783951
-1.78764 0.710849 0.719025
-1.8456 0.704253 0.712098
-1.98449 0.712589 0.68597
-1.77988 0.684432 0.741933
-1.90916 0.889655 0.660762
-1.72755 0.712822 0.762119
-1.79265 0.767802 0.730639
-1.97987 0.647162 0.723583
-1.8035 0.77823 0.783442
-1.71815 1.07116 0.716709
-1.81186 1.06294 0.670313
-1.81186 1.06294 0.670313
-1.75633 1.02048 0.682164
-1.79692 1.02064 0.709193
-1.7644 1.08379 0.706405
-1.99047 0.966003 0.660436
-1.86072 1.08487 0.680284
-1.94316 1.00662 0.673107
-1.9426 1.0071 0.669229
-1.77219 0.969156 0.702687
-1.97705 1.11119 0.639283
-1.95754 1.17978 0.647998
-1.88477 1.13845 0.671226
-1.81173 1.0666 0.686651
-1.75735 1.05746 0.708876
-1.87672 1.02424 0.677311
-1.73977 1.14085 0.720816
-1.99181 1.11888 0.596744
-1.91429 1.12886 0.567306
-1.87478 1.02275 0.691548
-1.57115 0.041404 0.820055
-1.51238 0.0824786 0.944412
-1.61741 0.591199 0.788418
-1.62465 0.593257 0.815376
-1.52334 0.575767 0.8408
-1.49653 0.531545 0.825503
-1.57465 0.531443 0.823397
-1.54441 0.467177 0.839438
-1.52113 0.573386 0.826468
-1.63177 0.357753 0.819317
-1.16143 0.26796 0.971816
-1.31359 0.261776 0.904137
-1.31359 0.261776 0.904137
-1.15903 0.286293 0.950116
-1.14016 0.213791 0.971376
-1.16422 0.157826 0.996718
-1.31233 0.263643 0.899377
-1.36314 0.425371 0.805267
-1.134 0.564261 0.928736
-1.33748 0.514766 0.887142
-1.34105 0.465465 0.879849
-1.3304 0.399564 0.920704
-1.17983 0.449582 0.897144
-1.39019 0.541907 0.884145
-1.33977 0.465401 0.870819
-1.54397 0.860436 0.765972
-1.57397 0.637603 0.815529
-1.60896 0.621298 0.804926
-1.58083 0.605062 0.793726
-1.68247 0.847681 0.718029
-1.64689 0.784036 0.762637
-1.5194 0.706223 0.836535
-1.69415 0.613571 0.788809
-1.5941 0.70406 0.789254
-1.4357 0.830884 0.7981
-1.62929 0.671565 0.795054
-1.67518 0.654857 0.819512
-1.66848 0.655167 0.766673
-1.57517 0.639279 0.802736
-1.50298 0.609658 0.81584
-1.54643 0.855803 0.74506
-1.61984 0.844301 0.74779
-1.64498 0.782908 0.751809
-1.59622 0.663445 0.743095
-1.61661 0.932577 0.808209
-1.67494 1.0942 0.718886
-1.54845 0.988764 0.766341
-1.62886 0.977251 0.751077
-1.5583 0.977141 0.806147
-1.61099 0.935005 0.741526
-1.62932 1.07365 0.769491
-1.56876 0.947771 0.739802
-1.46052 1.05673 0.790107
-1.63088 1.07517 0.751639
-1.3404 0.638424 0.854573
-1.23001 0.613434 0.904165
-1.22386 1.02842 0.822031
-1.37913 1.03472 0.813313
-1.29079 0.983618 0.84042
-1.31574 1.05108 0.841177
-1.35251 0.986888 0.842894
-1.36462 1.1741 0.812936
-1.26402 1.07734 0.858754
-1.26965 1.02301 0.875103
-1.35121 0.987846 0.850716
-2.16502 1.31619 0.579638
-2.20442 1.29788 0.627479
-2.0862 1.26394 0.622285
-2.02827 1.18824 0.628001
-2.02589 1.1867 0.571954
-2.08248 1.3958 0.598425
-2.19592 1.46127 0.654377
-2.18596 1.45803 0.654133
-2.17272 1.45155 0.6152
-2.198 1.29745 0.582835
-2.18242 1.19747 0.596785
-2.08835 1.19732 0.604761
-2.27789 1.21907 0.6829
-2.16576 1.74195 0.577292
-2.25318 1.60573 0.613561
-2.28698 1.59557 0.626062
-2.2551 1.56301 0.567535
-2.16976 1.51127 0.605665
-2.00935 1.64917 0.623254
-2.01466 1.4823 0.612143
-2.06844 1.4703 0.638005
-2.18933 1.66533 0.577069
-2.20874 1.56853 0.607795
-2.13048 1.71092 0.571026
-2.16822 1.60817 0.607951
-2.15255 1.56027 0.622882
-2.19212 1.66255 0.613053
-2.13255 1.69919 0.582225
-2.01093 1.64641 0.632741
-2.08587 1.60438 0.624738
-2.0682 1.47118 0.631408
-2.18258 1.6621 0.664913
-2.2101 1.57007 0.612401
-1.95292 1.44872 0.620648
-1.95292 1.44872 0.620648
-1.90185 1.42073 0.674741
-1.74066 1.31825 0.720047
-1.73907 1.46109 0.705896
-1.79483 1.46155 0.68432
-1.85401 1.46417 0.689268
-1.78465 1.29702 0.712936
-1.90206 1.36249 0.677744
-1.82675 1.34246 0.776544
-1.90132 1.42184 0.675061
-1.79348 1.65226 0.62247
-1.75511 1.62668 0.648491
-1.74439 1.57806 0.674008
-1.74415 1.57718 0.675458
-1.89864 1.48834 0.65739
-1.71403 1.738 0.602846
-1.71569 1.73904 0.623423
-1.84091 1.62936 0.638403
-1.83671 1.50111 0.665923
-1.94256 1.48747 0.668312
-2.19849 1.7614 0.578741
-2.07519 1.88794 0.563219
-2.08285 2.06673 0.572193
-2.04259 2.05249 0.565385
-2.01984 2.26656 0.621445
-2.01515 2.32702 0.636504
-2.03791 2.16696 0.587238
-2.01824 2.26768 0.590678
-2.06357 2.21715 0.604097
-2.03683 2.16532 0.626918
-1.99205 1.81554 0.563357
-1.93045 1.98479 0.603805
-1.9592 1.92509 0.578311
-1.96293 2.27924 0.620747
-1.77465 2.20306 0.636971
-1.82126 2.20009 0.658568
-1.75634 2.17176 0.616275
-1.81437 2.08335 0.624126
-1.82697 2.24664 0.624878
-1.82638 2.24641 0.627863
-1.7464 2.17155 0.65751
-1.92848 2.16909 0.619342
-1.81884 2.14763 0.64565
-1.88694 2.13617 0.625733
-1.75448 2.11957 0.652394
-1.85372 2.09999 0.628871
-1.78435 2.3244 0.668513
-1.78435 2.3244 0.668513
-1.91515 2.2838 0.648003
-1.81593 2.19322 0.644064
-1.98341 2.19389 0.599586
-1.74956 2.12155 0.61966
-1.97964 2.06932 0.593511
-1.96257 2.28299 0.637114
-1.77102 2.20019 0.638105
-1.97148 2.14062 0.627038
-1.7492 2.17735 0.73246
-1.82069 2.1512 0.656119
-1.69818 1.45252 0.744716
-1.55952 1.36064 0.737897
-1.62821 1.36393 0.744109
-1.47011 1.45111 0.750412
-1.61676 1.45438 0.723363
-1.52214 1.41259 0.755294
-1.67001 1.41257 0.751071
-1.67862 1.24525 0.742766
-1.535 1.24819 0.793591
-1.44685 1.72124 0.666578
-1.46936 1.64124 0.696128
-1.69177 1.60857 0.606833
-1.55178 1.60716 0.705339
-1.60147 1.58037 0.651639
-1.59953 1.58135 0.676206
-1.5041 1.55335 0.682866
-1.49693 1.54002 0.723957
-1.65957 1.55508 0.673184
-1.65908 1.55432 0.670506
-1.43595 1.57639 0.666244
-1.47679 1.74664 0.701709
-1.59615 1.68474 0.67088
-1.46554 1.63479 0.705685
-1.53946 1.64328 0.675688
-1.19222 1.3168 0.845599
-1.19022 1.3173 0.805741
-1.30893 1.43509 0.790731
-1.30641 1.36552 0.771963
-1.23405 1.36889 0.745732
-1.24265 1.31424 0.880464
-1.412 1.70843 0.709544
-1.19229 1.53497 0.737348
-1.38249 1.50073 0.734185
-1.29956 1.73734 0.704111
-1.33346 1.70968 0.6896
-1.23304 1.63241 0.746964
-1.23304 1.63241 0.746964
-1.38007 1.61222 0.673136
-1.31369 1.7549 0.713596
-1.41863 1.6767 0.693091
-1.18737 1.67001 0.707094
-1.22466 1.6161 0.738548
-1.21672 1.50907 0.756624
-1.40317 1.56989 0.671423
-1.30844 1.50833 0.766752
-1.33894 1.4834 0.763297
-1.30925 1.50798 0.757599
-1.27022 1.59081 0.718269
-1.24978 1.75622 0.685088
-1.35072 1.48247 0.852845
-1.60942 1.98551 0.624313
-1.69002 1.91957 0.669855
-1.58541 1.8787 0.609904
-1.53513 1.82001 0.64125
-1.53608 1.81892 0.641174
-1.67501 1.86132 0.618763
-1.60009 1.80375 0.626669
-1.48524 1.88235 0.672957
-1.48891 1.98532 0.678567
-1.60396 1.80434 0.658556
-1.53421 1.81964 0.645674
-1.53726 2.03687 0.691078
-1.53726 2.03687 0.691078
-1.42983 2.28367 0.677219
-1.70744 2.25113 0.692293
-1.70673 2.25191 0.697285
-1.52679 2.21876 0.708956
-1.51138 2.1253 0.699163
-1.46297 2.24775 0.672017
-1.66824 2.11291 0.66688
-1.43254 2.28356 0.663101
-1.49819 2.19245 0.666475
-1.67824 2.177 0.689136
-1.65779 2.23375 0.683153
-1.69637 2.10175 0.658506
-1.23452 2.02056 0.685087
-1.19062 2.02234 0.703579
-1.38914 1.9187 0.67101
-1.38824 1.91889 0.67626
-1.41577 2.02066 0.683795
-1.19739 2.04549 0.693699
-1.37403 1.79074 0.671849
-1.33967 1.81681 0.668438
-1.33967 1.81681 0.668438
-1.29122 2.07073 0.664475
-1.20989 2.30969 0.655014
-1.26545 2.24976 0.624352
-1.37641 2.18188 0.689677
-1.17728 2.11261 0.658004
-1.20889 2.07659 0.694159
-1.15265 2.05861 0.670966
-1.32936 2.05697 0.67698
-1.22518 2.19035 0.653441
-1.34297 2.31695 0.665841
-1.25799 2.27509 0.648507
-1.25697 2.27833 0.642971
-1.2563 2.0839 0.689424
-1.26281 2.1196 0.671064
-1.25562 2.08381 0.67151
-1.24976 2.07277 0.6859
-1.08021 0.188947 0.977629
-1.12042 0.153236 1.04048
-1.04625 0.131318 0.977907
-1.04294 0.131465 1.00765
-0.946946 0.12179 1.03859
-0.921428 0.166081 1.03421
-1.09938 0.230258 0.999934
-0.947077 0.208925 1.01849
-1.08095 0.188319 0.988994
-0.940628 0.523506 0.998841
-0.897992 0.473413 1.02074
-0.937896 0.448981 1.00292
-0.922681 0.327202 1.01233
-0.921409 0.328815 1.03349
-1.11498 0.588047 0.934467
-0.988585 0.563988 0.971841
-1.04429 0.539461 0.946217
-1.05289 0.490392 0.934682
-0.863012 0.433962 1.03523
-0.971034 0.383106 0.995671
-0.97553 0.563746 0.95048
-1.07421 0.44406 0.952153
-1.00768 0.361806 0.953433
-0.99067 0.563887 0.958285
-0.909041 0.401577 1.0031
-0.910528 0.365987 1.01025
-1.11982 0.31636 0.963488
-0.987598 0.563962 0.941696
-0.718843 0.531773 1.06874
-0.626454 0.496426 1.05969
-0.626454 0.496426 1.05969
-0.812467 0.503073 1.04351
-0.745069 0.498094 1.08471
-0.723051 0.536274 1.04252
-0.896549 0.876077 0.937089
-0.897517 0.874927 0.956355
-1.10632 0.631499 0.914521
-1.12016 0.640944 0.953681
-0.933322 1.00159 0.89983
-0.938575 0.988349 0.908704
-0.853784 1.17922 0.893307
-0.918722 1.15938 0.88187
-0.982535 1.11507 0.90438
-1.03882 1.05093 0.878008
-1.03779 1.05243 0.875653
-0.981124 1.01477 0.888134
-1.10535 1.01472 0.893445
-1.08659 1.13153 0.921097
-0.94027 0.982355 0.900854
-0.98365 1.11682 0.906622
-0.920949 1.0152 0.942953
-0.619944 0.875774 0.990335
-0.742925 0.756339 1.00012
-0.783506 0.728498 1.00249
-0.788786 0.676787 1.00707
-0.701952 0.621434 1.05131
-0.61897 0.876923 0.984236
-0.78352 0.728971 1.00259
-0.599819 1.01439 0.932097
-0.571309 1.14432 0.899653
-0.572195 1.14464 0.908132
-0.621733 1.14637 0.894869
-0.604803 1.11007 0.907418
-0.559376 1.04255 0.927625
-0.782415 1.07558 0.905255
-0.742884 0.952102 0.953977
-0.671147 1.11601 0.9019
-0.744249 0.950252 0.988304
-0.65686 1.0633 0.958345
-0.384471 0.132024 1.14119
-0.345487 0.563689 1.15207
-0.342769 0.562966 1.15427
-0.0213603 0.10514 1.37555
-0.00770781 0.0985558 1.33755
-0.101242 0.0740911 1.34058
-0.0250389 0.057401 1.33204
-0.0811542 0.0329207 1.34217
0.0221483 0.278799 1.28088
-0.0728388 0.07222 1.21249
-0.0728388 0.07222 1.21249
-0.0239805 0.0572014 1.31875
-0.236148 0.596412 1.19361
-0.163603 0.577712 1.20703
-0.0711705 0.501177 1.26389
0.0137775 0.428518 1.26516
-0.2526 0.386548 1.22755
-0.169104 0.47662 1.23307
-0.0444093 0.556695 1.26904
-0.0435018 0.559673 1.28102
-0.242463 0.600993 1.17316
-0.521706 0.686665 1.07154
-0.521706 0.686665 1.07154
-0.467593 0.854932 1.02633
-0.431801 0.763389 1.07731
-0.544805 0.728359 1.05441
-0.29202 0.678845 1.13044
-0.421405 0.878068 1.02735
-0.42434 0.880421 1.0176
-0.485432 0.720046 1.0666
-0.555016 0.813872 1.05458
-0.435314 0.765797 1.0347
-0.51669 1.17591 0.895243
-0.51432 1.17183 0.903514
-0.515211 1.17269 0.893249
-0.521742 1.12461 0.889204
-0.541119 1.0895 0.931364
-0.29152 0.958012 1.02256
-0.381058 0.945398 0.994931
-0.387111 1.12021 0.943258
-0.332075 1.07919 0.947772
-0.546223 1.09175 0.907028
-0.476737 1.06459 0.927545
-0.138416 0.809409 1.11978
-0.0751309 0.801881 1.13456
-0.0486231 0.707058 1.1301
-0.061586 0.843292 1.11252
-0.187915 0.809868 1.11899
-0.114449 0.860638 1.02445
-0.25317 0.819389 1.09578
-0.262032 0.753263 1.13178
-0.208742 0.679266 1.10138
-0.188806 0.811077 1.12685
-0.210091 0.926859 0.803616
0.0173512 1.04627 1.0117
-0.246011 0.94566 1.03308
0.0163451 0.906109 1.09472
0.00141807 1.09347 0.974475
-0.156156 1.06385 0.992342
-0.215817 1.04578 0.975562
-0.216456 1.04738 0.978113
-0.049517 1.13897 0.926764
-0.246693 0.942739 1.03223
-0.158227 1.06864 0.984818
-0.334439 0.662099 1.15406
-0.097645 0.739673 1.21183
-0.00631852 0.667167 1.20849
-0.00829012 0.667401 1.22968
-0.10615 0.777898 1.16317
-0.201148 0.67961 1.1763
-0.0354074 0.868463 1.20373
-0.128472 0.720423 1.17186
-0.106394 0.778008 1.1563
-0.997855 1.45589 0.79666
-1.0657 1.46242 0.797528
-0.954731 1.26436 0.848624
-0.931759 1.33226 0.821398
-1.0294 1.26799 0.828499
-1.06091 1.23732 0.837339
-1.01594 1.39666 0.786917
-1.06143 1.24014 0.859612
-1.04565 1.56686 0.750817
-0.92175 1.75549 0.740822
-0.947109 1.69195 0.744995
-1.11076 1.55633 0.760854
-0.989489 1.53546 0.765664
-1.00469 1.60724 0.736907
-1.00478 1.60786 0.75018
-1.04595 1.57359 0.773199
-1.04595 1.57359 0.773199
-0.99116 1.53484 0.771367
-1.1224 1.62146 0.737136
-0.99413 1.60688 0.660673
-1.11404 1.75202 0.708541
-1.11404 1.75202 0.708541
-1.07185 1.73871 0.738004
-1.12451 1.62661 0.75075
-0.70799 1.45084 0.809814
-0.75558 1.40806 0.826339
-0.833184 1.36207 0.803855
-0.833682 1.36347 0.811269
-0.801615 1.24347 0.795952
-0.590211 1.30935 0.838023
-0.70957 1.45009 0.819985
-0.67757 1.37029 0.83869
-0.580692 1.23188 0.865705
-0.682965 1.26976 0.858492
-0.654023 1.20463 0.862034
-0.675586 1.36957 0.852288
-0.613826 1.21529 0.862687
-0.700267 1.62392 0.762787
-0.702071 1.62427 0.777251
-0.748774 1.65172 0.767659
-0.571271 1.58265 0.810068
-0.801702 1.52503 0.784517
-0.741722 1.51013 0.801721
-0.793414 1.59131 0.797192
-0.583351 1.73822 0.77588
-0.752143 1.65841 0.773819
-0.750103 1.65599 0.755295
-0.747507 1.65049 0.762268
-0.615584 1.54104 0.812871
-0.582215 1.73861 0.77909
-0.654048 1.63967 0.805076
-0.874707 1.86241 0.708754
-0.939539 1.83511 0.677179
-1.06115 2.01742 0.668402
-1.02313 1.78434 0.693448
-0.87535 1.80337 0.711523
-1.03822 1.89229 0.683504
-1.08162 1.86068 0.698299
-0.939879 1.84009 0.689492
-1.00483 1.9143 0.679334
-0.987145 2.2365 0.625489
-0.941101 2.21619 0.623098
-1.00445 2.32402 0.638954
-0.91354 2.24623 0.647559
-1.05805 2.21844 0.643076
-1.01272 2.205 0.644368
-1.10329 2.18126 0.640965
-1.10431 2.17853 0.612981
-0.866309 2.13256 0.668115
-0.860661 2.26615 0.629232
-1.12019 2.25488 0.602139
-1.11111 2.10875 0.658811
-1.1113 2.10673 0.670176
-0.894227 2.19074 0.628827
-1.01007 2.2822 0.611599
-1.01846 2.14828 0.608459
-1.10942 2.11083 0.680146
-0.629444 2.04168 0.705118
-0.556761 1.99754 0.73714
-0.841839 1.98566 0.700158
-0.8417 1.98746 0.704779
-0.839487 1.91375 0.698469
-0.616489 1.91017 0.742932
-0.708169 1.89393 0.728324
-0.743614 1.84767 0.73518
-0.742855 1.84716 0.74276
-0.555584 1.92835 0.713203
-0.78036 1.77032 0.744668
-0.766888 2.00501 0.689715
-0.660186 1.89163 0.685454
-0.561377 2.0012 0.696172
-0.647386 1.86861 0.764096
-0.743164 2.27123 0.581703
-0.743465 2.25909 0.620372
-0.62776 2.3342 0.650989
-0.794321 2.26614 0.635931
-0.680991 2.07314 0.712831
-0.616947 2.21318 0.682765
-0.76713 2.07849 0.669491
-0.756549 2.29552 0.662558
-0.823421 2.14937 0.663633
-0.56837 2.09495 0.653035
-0.840821 2.06885 0.681486
-0.838753 2.06706 0.672212
-0.754178 2.29027 0.656941
-0.759148 2.06452 0.671306
-0.410113 1.41806 0.849723
-0.482952 1.36033 0.822178
-0.552524 1.34775 0.845362
-0.383452 1.27458 0.882867
-0.490976 1.21607 0.885629
-0.486955 1.42604 0.859259
-0.426995 1.3525 0.865905
-0.42771 1.35368 0.857581
-0.413755 1.26049 0.86866
-0.486213 1.42535 0.859336
-0.358595 1.42535 0.882294
-0.410627 1.41697 0.85438
-0.542837 1.74549 0.760723
-0.407222 1.58583 0.793979
-0.447148 1.5742 0.808764
-0.40554 1.58256 0.794009
-0.34267 1.48967 0.824949
-0.496856 1.59849 0.819608
-0.409851 1.59047 0.800644
-0.476032 1.50005 0.780062
-0.356293 1.65583 0.869922
-0.0981942 1.37615 0.831154
-0.225033 1.46672 0.813782
-0.220402 1.29906 0.90389
-0.0077109 1.37342 0.858881
-0.0794484 1.31908 0.889085
-0.169517 1.26795 0.908051
-0.235271 1.25482 0.906605
-0.235358 1.25664 0.90583
-0.251405 1.18089 0.898666
-0.0168804 1.24338 0.95624
0.0176897 1.3951 0.861949
-0.112452 1.26035 0.918318
-0.1438 1.36754 0.867155
0.0215342 1.58754 0.78333
-0.0249355 1.73104 0.760396
0.00191804 1.70431 0.785426
-0.0206437 1.55545 0.832728
0.00157234 1.70267 0.793207
-0.548392 1.9943 0.733177
-0.551658 1.9955 0.756864
-0.333271 1.93998 0.727335
-0.400339 2.0022 0.726458
-0.323015 1.89707 0.737495
-0.331421 1.89539 0.737659
-0.448067 1.89547 0.747642
-0.504431 1.89686 0.756291
-0.400596 1.87398 0.744686
-0.548744 1.85073 0.758814
-0.446989 1.83196 0.757531
-0.295254 1.79488 0.758044
-0.352551 2.02545 0.717956
-0.351703 2.02428 0.727724
-0.536148 2.00893 0.650807
-0.451217 2.00599 0.740369
-0.293767 1.90779 0.742272
-0.440853 1.89938 0.723034
-0.402401 2.00189 0.728804
-0.475766 1.94833 0.742979
-0.438911 2.03956 0.712875
-0.550953 1.92927 0.743342
-0.35981 2.20515 0.697241
-0.481698 2.18914 0.709763
-0.481424 2.18923 0.709633
-0.49763 2.15364 0.703772
-0.540201 2.09817 0.769376
-0.417172 2.24564 0.674712
-0.481586 2.24076 0.709003
-0.553372 2.15549 0.701732
-0.336447 2.13639 0.705273
-0.332814 2.26252 0.696916
-0.415594 2.25159 0.691585
-0.415594 2.25159 0.691585
-0.482375 2.2419 0.70287
-0.52458 2.32947 0.590078
-0.146942 2.00726 0.743206
-0.0730489 1.88555 0.741796
-0.0246162 1.8755 0.757086
0.0164911 1.76028 0.757382
0.0171861 1.76381 0.761609
-0.0916002 1.79488 0.765911
-0.18086 1.77355 0.774361
-0.0869771 2.02945 0.727765
-0.147641 2.00658 0.750974
-0.20218 1.96981 0.717256
-0.262565 1.84662 0.762201
-0.0634209 2.29538 0.689973
0.0222172 2.11583 0.727694
-0.167317 2.2562 0.707132
-0.0830746 2.24445 0.695268
-0.163992 2.3267 0.678992
-0.0360174 2.318 0.690527
-0.0328508 2.32026 0.674558
-0.156863 2.15834 0.725569
-0.158933 2.15774 0.702922
-0.10773 2.10601 0.724885
-0.10773 2.10601 0.724885
-0.0662535 2.29141 0.690882
-0.23404 2.30383 0.684605
-0.11042 2.10167 0.714959
-0.11042 2.10167 0.714959
-0.0504325 2.25384 0.722295
-2.00883 2.5774 0.660419
-2.02328 2.51942 0.655454
-2.00437 2.46882 0.666759
-2.06764 2.48823 0.650432
-2.14912 2.51135 0.637302
-2.13426 2.6193 0.654592
-2.25623 2.40529 0.582298
-2.24746 2.61518 0.684286
-2.0336 2.80441 0.65929
-2.22836 2.88807 0.661976
-2.03371 2.88408 0.659988
-2.13052 2.86678 0.64068
-2.18063 2.852 0.63346
-2.18883 2.69378 0.67184
-2.04956 2.88239 0.66433
-2.20719 2.85843 0.656628
-2.10756 2.75779 0.573213
-2.11618 2.75919 0.671969
-2.18866 2.78817 0.671627
-2.12259 2.7161 0.667462
-2.20759 2.85824 0.657163
-2.11829 2.75724 0.673236
-2.07358 2.78882 0.660798
-2.23557 2.88335 0.607967
-2.28287 2.75017 0.681514
-1.91966 2.42675 0.617139
-1.83814 2.41244 0.65383
-1.9114 2.37696 0.631642
-1.91151 2.37053 0.66902
-1.90972 2.55317 0.675609
-1.90954 2.55577 0.672428
-1.7594 2.53009 0.666515
-1.75877 2.5307 0.678016
-1.8491 2.50958 0.652587
-1.71965 2.46347 0.659104
-1.85665 2.54063 0.57945
-1.97052 2.38302 0.632958
-1.8373 2.34407 0.592358
-1.84389 2.3414 0.670337
-1.84982 2.51 0.652661
-1.97447 2.43626 0.661969
-1.89626 2.47396 0.711184
-1.7484 2.73898 0.653984
-1.8537 2.90474 0.627559
-1.91752 2.83033 0.619588
-1.92327 2.77261 0.693853
-1.94258 2.73507 0.670317
-1.87036 2.70403 0.687119
-1.93524 2.62954 0.669724
-1.80771 2.87177 0.633186
-1.98463 2.68053 0.684809
-1.93668 2.68558 0.687954
-1.81793 2.6846 0.678128
-1.99089 2.90381 0.653988
-1.80827 2.87081 0.633386
-1.77911 2.90725 0.654051
-1.82399 2.69056 0.717503
-1.82046 2.68646 0.686962
-1.80016 2.86589 0.691185
-1.99092 2.83018 0.652654
-2.23306 3.0314 0.6365
-2.12814 3.02306 0.613772
-2.20537 2.99597 0.61132
-2.07842 3.06618 0.605671
-2.07907 3.0644 0.601998
-2.23025 2.97354 0.644126
-2.23225 2.97456 0.643068
-2.05012 2.95077 0.633725
-2.15221 2.9515 0.64113
-2.08331 2.92116 0.622635
-2.14808 3.1898 0.586168
-2.03144 3.01512 0.61202
-2.1759 3.01346 0.607392
-2.02356 3.1207 0.578646
-2.02054 3.17202 0.590105
-2.12829 3.02548 0.629463
-2.17733 3.01633 0.614738
-2.13406 3.34271 0.562532
-2.1729 3.26603 0.579862
-2.27965 3.25963 0.574624
-2.20557 3.29438 0.585815
-2.04908 3.22739 0.595673
-2.26357 3.21451 0.579961
-2.13954 3.25567 0.580204
-2.27953 3.25943 0.574692
-2.13316 3.3411 0.567724
-2.04946 3.22869 0.599541
-2.13997 3.25794 0.587544
-2.25401 3.36605 0.604019
-1.95228 3.17418 0.577708
-1.75843 3.10593 0.566617
-1.79887 3.11913 0.593435
-1.73335 3.07121 0.586834
-1.73461 3.07066 0.580231
-1.98533 3.05239 0.587029
-1.71402 2.99053 0.603255
-1.94523 2.92709 0.624789
-1.94428 2.93027 0.633306
-1.86321 3.17804 0.562226
-1.7561 2.92625 0.611305
-1.7567 2.92774 0.618922
-1.73161 3.07456 0.576399
-1.73161 3.07456 0.576399
-1.76174 3.10451 0.57206
-1.91064 3.19112 0.59349
-1.78981 2.94607 0.599928
-1.80575 3.01767 0.608842
-1.98465 3.34134 0.562746
-1.81019 3.25551 0.577994
-1.5518 2.53376 0.640324
-1.59016 2.58024 0.656438
-1.43862 2.57127 0.64301
-1.70952 2.48309 0.657085
-1.47574 2.42731 0.656758
-1.64092 2.42243 0.664776
-1.60286 2.50631 0.64986
-1.51653 2.46642 0.653113
-1.58749 2.57636 0.650685
-1.60294 2.44031 0.64551
-1.46445 2.52045 0.766181
-1.48302 2.34729 0.648704
-1.48102 2.34549 0.666363
-1.53421 2.585 0.645663
-1.65147 2.46625 0.609128
-1.46806 2.62358 0.651553
-1.55085 2.85376 0.620429
-1.50149 2.7385 0.625065
-1.42891 2.90348 0.574125
-1.58444 2.78225 0.613803
-1.70443 2.6435 0.62376
-1.30707 2.5915 0.599054
-1.31511 2.40202 0.64543
-1.20991 2.43364 0.626298
-1.21247 2.42962 0.61588
-1.212 2.42913 0.621225
-1.16263 2.37645 0.621697
-1.30655 2.44557 0.630544
-1.31314 2.4528 0.631709
-1.31314 2.4528 0.631709
-1.17008 2.37706 0.672147
-1.357 2.51015 0.6271
-1.34854 2.7466 0.575184
-1.27495 2.79607 0.5914
-1.27586 2.79473 0.58125
-1.34714 2.6536 0.616893
-1.36099 2.85175 0.595754
-1.14118 2.81132 0.572345
-1.28038 2.89621 0.563889
-1.35206 2.7445 0.596238
-1.2549 2.65247 0.618436
-1.34627 2.65458 0.622623
-1.51364 3.1202 0.568905
-1.60724 3.09342 0.575605
-1.67515 3.02845 0.586794
-1.56967 2.9148 0.598737
-1.69448 3.07724 0.575862
-1.50665 3.00531 0.578434
-1.60669 3.09378 0.575145
-1.50041 3.00684 0.585
-1.66553 2.95073 0.624874
-2.22239 3.72034 0.577799
-2.1312 3.72472 0.581657
-2.12367 3.55092 0.566536
-2.15957 3.78132 0.611239
-2.17979 3.56207 0.573288
-2.20837 3.65477 0.581345
-2.05001 3.84338 0.56284
-2.19663 3.78587 0.572009
-2.13922 3.8502 0.580243
-2.07411 3.87756 0.57341
-2.14161 3.87444 0.561389
-1.90169 3.61304 0.575755
-1.90169 3.61304 0.575755
-1.96656 3.90102 0.563439
-1.9432 3.78398 0.569302
-1.93348 3.85371 0.57311
-1.99598 4.18498 0.628166
-1.52831 3.75512 0.747407
-0.994746 2.54122 0.574478
-0.885608 2.41054 0.635075
-0.933089 2.37762 0.613769
-1.04457 2.61545 0.575192
-0.910852 2.52312 0.597561
-1.11939 2.45534 0.624429
-1.12162 2.45774 0.608066
-0.949985 2.58121 0.581503
-0.93064 2.45818 0.57786
-1.03978 2.55741 0.594217
-0.978553 2.35043 0.651615
-0.857677 2.42398 0.576663
-1.03661 2.5597 0.577229
-0.993893 2.54133 0.576054
-1.10283 2.6305 0.577099
-1.10396 2.80356 0.570973
-0.610712 2.59049 0.591092
-0.653094 2.49238 0.604405
-0.66833 2.57817 0.598746
-0.572395 2.56149 0.606496
-0.638024 2.53002 0.62298
-0.571888 2.49656 0.621274
-0.572102 2.50043 0.611195
-0.836109 2.49165 0.595787
-0.679057 2.40105 0.637451
-0.67935 2.40065 0.638892
-0.568983 2.36977 0.644535
-0.656277 2.49148 0.625099
-0.663812 2.43192 0.625076
-0.745419 2.40913 0.635747
-0.571284 2.55754 0.595562
-0.745399 2.52663 0.599912
-0.693482 2.62601 0.601969
-0.667597 2.79332 0.571902
-0.612691 2.76072 0.568092
-0.637017 2.63998 0.602078
-0.756765 2.71587 0.570243
-0.7488 2.76281 0.565364
-0.711466 2.78617 0.60164
-0.641362 2.70803 0.574682
-0.942368 3.06142 0.570964
-0.94181 3.06177 0.567726
-0.498553 2.59876 0.619181
-0.278785 2.40915 0.666419
-0.278357 2.40825 0.669443
-0.2773 2.57786 0.622703
-0.377786 2.38622 0.667231
-0.349667 2.45782 0.636851
-0.427185 2.35562 0.651662
-0.477004 2.36881 0.661491
-0.41174 2.58225 0.630944
-0.36261 2.60426 0.616794
-0.407208 2.50781 0.639289
-0.347753 2.45645 0.639275
-0.33345 2.68122 0.59777
-0.370223 2.67445 0.616223
-0.281042 2.77987 0.593297
-0.376733 2.68415 0.634636
-0.421931 2.66545 0.584824
-0.422723 2.66625 0.594023
-0.402137 2.72864 0.570778
-0.402362 2.72902 0.569166
-0.3603 2.88956 0.57076
-0.49277 2.67017 0.565121
-0.344545 2.81116 0.581493
-0.300844 2.6339 0.611487
-0.0572613 2.5014 0.6619
-0.164208 2.49989 0.623728
-0.262703 2.46002 0.646004
-0.218353 2.58314 0.619507
-0.202732 2.52526 0.600534
-0.2378 2.3694 0.659896
-0.237596 2.36971 0.663589
-0.0735325 2.56328 0.627448
-0.146647 2.56572 0.63094
-0.14999 2.56732 0.62993
-0.10244 2.42892 0.659593
-0.143868 2.61539 0.605384
-0.16555 2.58757 0.636333
-0.260893 2.45808 0.658856
-0.077537 2.5564 0.613846
-0.17598 2.38641 0.667554
-0.157153 2.50174 0.648038
-0.0652623 2.62909 0.610985
-0.18041 2.69429 0.583495
-0.192074 2.63815 0.620118
-0.155967 2.86657 0.589639
-0.0700173 2.63208 0.612503
-0.0213355 2.75775 0.600481
-0.261597 2.70833 0.572595
-0.359513 2.97795 0.707915
-0.340793 2.98452 0.570062
-0.338306 3.44111 0.570902
-0.313838 3.38151 0.616468
-0.394654 3.45338 0.659746
-0.066878 3.19843 0.568715
1.20365e-05 3.18339 0.564167
-0.145543 2.91868 0.569392
-0.0205471 3.13849 0.593093
0.0104573 3.45738 0.598305
0.00778504 3.45578 0.623469
-0.0678522 3.43014 0.62014
-0.0489283 3.23372 0.613458
-0.0879078 3.37553 0.604526
-0.226286 3.33476 0.570544
-0.172257 3.30608 0.581069
-0.0978509 3.27193 0.59386
-0.0967777 3.27117 0.602417
-0.0696403 3.48737 0.620358
-0.142775 3.23757 0.576488
-0.0863445 3.37582 0.615588
-0.16543 3.36686 0.591391
-0.139006 3.47794 0.643039
-0.239447 3.32118 0.563765
0.00549086 3.23153 0.57424
-0.225286 3.42214 0.577547
-0.0577815 3.35549 0.573456
-0.218419 3.33482 0.627415
-0.573108 3.65845 0.580465
-0.601445 3.75596 0.592312
-0.614805 3.72479 0.569288
-0.683621 3.67382 0.573686
-0.578825 3.66373 0.598337
-0.578825 3.66373 0.598337
-0.621392 3.72549 0.616091
-0.588376 4.02756 0.603455
-0.588376 4.02756 0.603455
-0.570948 3.82133 0.674263
-0.56675 3.82366 0.595688
-0.732585 4.03046 0.561742
-0.595714 4.02471 0.591324
-0.624559 3.79683 0.562634
-0.666451 3.98633 0.570448
-0.798134 3.89497 0.568884
-0.708861 3.8122 0.586695
-0.73258 3.88699 0.562258
-0.732988 3.88649 0.57003
-1.05388 4.31333 0.566599
-0.872472 4.21814 0.572439
-1.04689 4.63069 0.604101
-0.923001 4.52792 0.59148
-1.0492 4.62867 0.609868
-0.921369 4.52361 0.591609
-0.919165 4.40353 0.607264
-0.624527 4.32552 0.578349
-0.597197 4.30473 0.57992
-0.656404 4.29939 0.570558
-0.628818 4.09457 0.601108
-0.784297 4.30938 0.622925
-0.784297 4.30938 0.622925
-0.725787 4.16591 0.571818
-0.595455 4.12434 0.60417
-0.670017 4.09354 0.570003
-0.639122 4.30601 0.695994
-0.596725 4.07166 0.618952
-0.674392 4.3569 0.578971
-0.656498 4.19883 0.574718
-0.659319 4.20689 0.598304
-0.673878 4.11628 0.572842
-0.612029 4.49314 0.598053
-0.742988 4.42362 0.576927
-0.556166 4.37908 0.608327
-0.655424 4.50671 0.573074
-0.840605 4.43796 0.571797
-0.739914 4.52643 0.569937
-0.719832 4.47334 0.609072
-0.562981 4.38608 0.591212
-0.840607 4.44055 0.563114
-0.334876 3.62459 0.607464
-0.335035 3.62497 0.617077
-0.522992 3.77348 0.598775
-0.471846 3.74144 0.62841
-0.482906 3.66541 0.595878
-0.483093 3.66589 0.58412
-0.292689 3.63463 0.598722
-0.412198 3.63418 0.616776
-0.269413 3.5301 0.617806
-0.327291 3.51437 0.576591
-0.368386 3.75896 0.625052
-0.399472 3.509 0.593516
-0.520508 3.71449 0.572423
-0.430661 3.67273 0.598682
-0.432496 3.67255 0.593878
-0.524785 3.77242 0.58855
-0.325704 3.51848 0.592519
-0.302738 3.97008 0.569436
-0.391401 3.89816 0.610125
-0.407693 3.80716 0.601635
-0.449691 3.7891 0.592498
-0.54859 3.95998 0.602484
-0.457092 3.83805 0.611854
-0.457573 3.83801 0.602274
-0.473929 4.00248 0.584643
-0.344951 3.79648 0.617493
-0.304821 3.97229 0.589238
-0.541764 4.03755 0.601925
-0.385389 3.84573 0.630774
-0.386602 3.84568 0.634057
-0.0641872 3.74967 0.601159
-0.0994012 3.75082 0.595524
-0.210925 3.75057 0.614606
-0.0488365 3.69476 0.613474
-0.0463305 3.69492 0.601469
-0.00178042 3.6403 0.619301
-0.159106 3.67172 0.620095
-0.0477736 3.60267 0.616347
-0.0866791 3.71683 0.597333
-0.0720171 3.75068 0.636698
-0.0761818 3.74399 0.601609
-0.226074 3.6487 0.613156
-0.249782 3.55197 0.640906
-0.0724808 3.7524 0.590767
-0.155517 3.91253 0.584296
-0.157029 3.91229 0.586573
0.00843494 3.93745 0.570634
-0.115381 3.84679 0.568587
-0.115381 3.84679 0.568587
-0.0167531 3.84492 0.568964
-0.0168247 3.84457 0.570172
-0.22953 3.8299 0.602424
-0.147936 4.03351 0.577192
-0.000400977 3.8054 0.579059
-0.00083726 3.80775 0.574179
-0.104024 3.9843 0.568958
-0.0338592 3.89543 0.569154
-0.0668992 3.80875 0.604061
-0.217453 3.96552 0.594703
-0.437923 4.32985 0.656649
-0.358065 4.29613 0.589841
-0.375395 4.24084 0.612155
-0.490578 4.11556 0.601985
-0.359861 4.11018 0.57928
-0.377072 4.0793 0.600931
-0.499397 4.30219 0.60626
-0.440536 4.25624 0.601825
-0.440557 4.25773 0.598424
-0.307623 4.24398 0.593416
-0.307623 4.24398 0.593416
-0.460346 4.18251 0.578353
-0.374402 4.241 0.607486
-0.551993 4.09113 0.59581
-0.421198 4.13089 0.570395
-0.304044 4.24558 0.573634
-0.525509 4.14901 0.586722
-0.361481 4.11046 0.568108
-0.500345 4.2992 0.598929
-0.417608 4.12693 0.592298
-0.440654 4.50117 0.603483
-0.294061 4.37043 0.585565
-0.452363 4.40274 0.564627
-0.327956 4.39359 0.564991
-0.29215 4.37226 0.606921
-0.50475 4.39695 0.566438
-0.387866 4.51272 0.568193
-0.137822 4.34809 0.575917
-0.113299 4.2246 0.595385
-0.124628 4.16485 0.588816
-0.090385 4.1581 0.561342
-0.0180124 4.14232 0.587248
-0.0167193 4.14195 0.569225
-0.227042 4.33814 0.620099
-0.22834 4.33706 0.608657
0.0118953 4.27917 0.596076
-0.156304 4.24145 0.594718
-0.21218 4.1577 0.574358
-0.218585 4.08524 0.577167
-0.046118 4.18806 0.600041
-0.0451095 4.34579 0.613384
-0.0405268 4.34485 0.56517
-0.126433 4.30357 0.625571
-0.126547 4.30317 0.626142
-0.117885 4.10996 0.579476
0.0135591 4.2791 0.603136
-0.0804225 4.1459 0.675729
-0.0552399 4.13429 0.585935
-0.0463285 4.2342 0.598401
-0.16976 4.50936 0.621519
-0.177172 4.47127 0.571309
0.0167693 4.47683 0.56954
-0.161595 4.42751 0.610418
-0.260118 4.42067 0.578961
-0.177162 4.37785 0.609493
-0.226288 4.52472 0.571652
-0.124674 4.47705 0.574297
-0.225476 4.43844 0.59813
-0.0566054 4.50158 0.585192
-0.0325726 4.61721 0.578659
-2.94443 5.4115 0.570157
-2.64329 4.66099 0.605474
-3.31872 5.96114 0.575383
-1.16164 4.76851 0.566456
-1.17733 5.25421 0.582213
-0.954789 4.79287 0.585069
-0.968492 4.74893 0.580506
-1.00541 4.79423 0.563081
-1.00552 4.79491 0.561659
-0.943886 4.7039 0.569052
-1.00071 4.6626 0.605698
-1.11374 4.6546 0.588208
-0.915076 4.7321 0.631604
-1.08284 4.69369 0.617046
-0.947847 4.65841 0.589363
-1.0813 4.65438 0.596428
-0.929918 4.94298 0.718799
-1.05361 4.98986 0.56661
-0.572039 4.75612 0.5634
-0.574476 4.75348 0.570158
-0.724018 4.9361 0.573225
-0.723902 4.93412 0.57371
-0.841234 4.92014 0.575749
-0.773839 4.8931 0.570602
-0.671781 4.92147 0.585291
-0.672985 4.92611 0.574056
-0.574369 4.67369 0.570492
-0.704181 4.82154 0.605723
-0.839822 4.91915 0.575518
-0.56666 5.08341 0.566039
-0.765769 4.98563 0.570544
-0.725938 4.93943 0.573041
-0.726389 4.93832 0.570346
-0.650101 5.03928 0.568105
-0.685245 4.97032 0.597641
-0.625711 4.96462 0.588044
-0.68158 4.96981 0.575221
-0.718983 5.72901 0.5923
-0.384757 4.86156 0.623297
-0.330753 4.80551 0.578642
-0.330398 4.80659 0.569104
-0.425242 4.9378 0.569637
-0.307356 4.85273 0.596988
-0.416332 4.99822 0.598241
-0.360974 5.1091 0.569705
-0.361177 5.10791 0.567299
-0.378304 5.05905 0.561866
-0.376059 5.05847 0.600591
-0.475981 5.02666 0.590635
-0.417733 4.99519 0.593898
-0.196997 4.85889 0.590866
-0.196258 4.85778 0.584389
-0.107855 4.92012 0.622879
-0.0778364 4.83224 0.594055
-0.262184 4.90788 0.603814
-0.198627 4.85922 0.588531
-0.199916 4.86038 0.578328
0.00881079 4.71604 0.568996
-0.160126 4.65585 0.567311
-0.214375 4.7606 0.651177
-0.139356 4.80692 0.588684
-0.0160483 5.1899 0.568539
0.0112892 4.96762 0.603655
-0.117145 5.14346 0.578929
-0.0959686 5.03294 0.604841
-0.231439 5.09064 0.592433
-0.0669477 5.12904 0.568922
-0.177787 4.94584 0.605218
-0.231589 5.08878 0.585126
-0.170342 5.03518 0.5966
-0.0410157 5.06606 0.585279
-0.493092 5.42164 0.584644
-0.131175 5.49318 0.563798
-0.197058 5.45864 0.578267
-0.153638 5.62638 0.665747
0.526517 -2.30737 -23.8307
0.278278 -8.10031 0.377948
0.0567873 -8.10723 0.316535
0.285946 -8.18233 0.388135
0.219065 -8.2462 0.327585
0.166671 -8.0878 0.352724
0.166671 -8.0878 0.352724
0.385184 -8.22353 0.397575
0.335382 -8.12292 0.42711
0.432628 -8.238 0.417864
0.346748 -8.24546 0.367205
0.547676 -8.21539 0.421346
0.430802 -8.23173 0.416163
0.719088 -8.11233 0.407108
0.76713 -8.19699 0.377374
0.310842 -8.06543 0.372049
0.311245 -7.86371 0.43901
0.174204 -7.95039 0.385727
0.0288017 -7.96626 0.329098
0.310348 -7.96624 0.428266
0.0272777 -7.96425 0.326669
0.288424 -7.61473 0.455137
0.291692 -7.61299 0.439034
0.260228 -7.69508 0.426342
0.308286 -7.75448 0.445907
0.260852 -7.69505 0.429656
0.472067 -8.06399 0.383269
0.422319 -8.03381 0.424779
0.382969 -7.67087 0.445903
0.49948 -7.66753 0.450631
0.576643 -7.58698 0.474248
0.371406 -7.76396 0.472747
0.565179 -7.76676 0.419644
0.425069 -7.76116 0.409678
0.558761 -7.76478 0.458454
0.501263 -7.66676 0.458496
0.559339 -7.68055 0.453548
0.511559 -7.75881 0.47632
0.511559 -7.75881 0.47632
0.275237 -7.21815 0.451106
0.248286 -7.44766 0.411241
0.244762 -7.44851 0.353509
0.158647 -7.37583 0.384107
0.19205 -7.28289 0.415095
0.081161 -7.27523 0.396349
0.285618 -7.01272 0.423413
0.167893 -7.15266 0.428008
0.190963 -7.09713 0.396441
0.413675 -7.36563 0.48083
0.554372 -7.30493 0.46997
0.407885 -7.36489 0.504497
0.59547 -7.23453 0.454076
0.591196 -7.43759 0.446224
0.592929 -7.43507 0.463306
0.509019 -7.47682 0.457844
0.572786 -7.48981 0.52454
0.377073 -6.95443 0.433281
0.422405 -7.18775 0.487138
0.487242 -7.19255 0.482273
0.467986 -6.97091 0.389033
0.464633 -6.97261 0.431751
0.518145 -7.03636 0.453135
0.605651 -8.01773 0.42781
0.603973 -8.01958 0.412065
0.781319 -7.94442 0.430991
0.850894 -7.97586 0.429195
0.62082 -7.8027 0.415184
0.695526 -7.92066 0.335098
0.805399 -7.9801 0.380922
0.606105 -8.01765 0.429315
0.83534 -7.58321 0.470575
0.832937 -7.58667 0.381945
0.866747 -7.63196 0.448364
0.867617 -7.63231 0.423782
0.694219 -7.76486 0.44967
0.704057 -7.52048 0.47342
0.720087 -7.72141 0.446197
0.750579 -7.54788 0.485114
0.701425 -7.69763 0.418721
0.963113 -7.78424 0.39653
1.03844 -7.86636 0.387239
1.15444 -7.56968 0.392583
0.906489 -7.58632 0.46119
0.906087 -7.58314 0.464624
1.05348 -7.60545 0.423983
0.983654 -7.62189 0.421824
0.981148 -7.61652 0.4425
1.06806 -7.72389 0.342894
1.06806 -7.72389 0.342894
1.0379 -7.72757 0.381819
0.903392 -7.5894 0.446136
0.785736 -7.20372 0.421397
0.801222 -7.32318 0.43184
0.747119 -7.4154 0.462577
0.844512 -7.25594 0.452471
0.866498 -7.46804 0.45293
0.786033 -7.20517 0.419517
0.801566 -7.32476 0.412788
0.747902 -7.41477 0.45115
0.653768 -6.98581 0.451687
0.653768 -6.98581 0.451687
0.758485 -7.10515 0.441228
0.766424 -7.06363 0.438486
0.611793 -7.00568 0.446018
0.833935 -7.06798 0.446393
0.756964 -7.10697 0.4463
0.889231 -6.92555 0.449438
0.761325 -7.14912 0.421321
0.722051 -7.02726 0.440089
0.755058 -7.1054 0.451039
0.877632 -7.04524 0.440666
0.695321 -7.06099 0.510127
0.656944 -7.1933 0.440613
0.979761 -7.30749 0.391791
0.966928 -7.38168 0.41241
0.95255 -7.29104 0.414671
0.991025 -6.92347 0.445215
0.891965 -6.92208 0.42962
1.14429 -6.97635 0.433199
1.15622 -6.98288 0.434306
1.06872 -7.07156 0.435453
0.89384 -7.06178 0.441681
0.993458 -7.01775 0.425124
1.06645 -7.0671 0.423485
1.01207 -7.16719 0.394047
0.933207 -7.17714 0.449277
0.991585 -6.92603 0.445561
1.10796 -7.12876 0.354713
0.934948 -7.18218 0.440298
1.17399 -7.05691 0.414649
1.73142 -8.10252 0.271048
1.59353 -8.1151 0.245416
1.95463 -8.16465 0.264408
1.796 -8.10088 0.267372
1.78331 -8.08906 0.236427
1.95773 -8.16502 0.263553
1.82993 -8.17654 0.270265
2.1423 -8.18849 0.265386
2.0516 -8.21773 0.273384
1.24105 -7.97518 0.338055
1.68533 -7.82382 0.229525
1.68088 -7.82853 0.26002
1.65953 -7.91282 0.253062
1.66331 -7.90209 0.27844
1.50004 -7.59608 0.329175
1.59954 -7.63892 0.306545
1.56784 -7.62546 0.280311
1.2841 -7.48768 0.292247
1.2841 -7.48768 0.292247
1.2142 -7.41758 0.331527
1.34148 -6.96362 0.474283
1.35081 -7.01081 0.43989
1.34734 -7.08732 0.421267
1.23126 -7.10677 0.407432
1.3192 -7.05871 0.395509
1.3192 -7.05871 0.395509
1.23561 -6.96363 0.457542
1.28802 -6.93899 0.429661
1.23835 -7.00237 0.427376
1.3804 -7.15524 0.390889
1.55023 -7.38212 0.301398
1.4851 -7.39073 0.312824
1.48434 -6.99443 0.400322
1.56739 -7.06411 0.338321
1.77439 -8.03293 0.227896
1.82689 -8.03797 0.211407
1.95742 -7.94494 0.253661
1.7754 -8.03027 0.243041
1.93971 -7.9182 0.287073
1.77391 -7.68502 0.263686
1.77535 -7.67921 0.244037
2.15504 -7.96735 0.249365
2.23905 -7.75863 0.249584
2.08463 -7.67289 0.256283
2.30062 -7.55094 0.256765
2.26795 -7.60359 0.244152
2.28797 -7.57045 0.173204
2.01842 -7.32103 0.216266
1.88663 -7.00832 0.296862
1.88927 -7.00315 0.278764
1.81332 -6.91526 0.354538
1.77851 -7.12471 0.289704
1.77967 -7.11729 0.292999
2.17822 -7.06486 0.265338
2.09603 -7.14188 0.260102
2.09763 -7.15734 0.25215
0.0978927 -6.86141 0.410405
0.151946 -6.68148 0.427965
0.273157 -6.81654 0.399462
0.242656 -6.56308 0.434124
0.37035 -6.75675 0.437144
0.449897 -6.77584 0.438697
0.457307 -6.6969 0.437618
0.371982 -6.7533 0.433917
0.449182 -6.77426 0.428202
0.433933 -6.41339 0.456856
0.467416 -6.5591 0.461691
0.465906 -6.56139 0.461607
0.580617 -6.39023 0.427562
0.482 -6.39485 0.42911
0.52516 -6.42273 0.459606
0.52516 -6.42273 0.459606
0.481837 -6.45625 0.425776
0.563927 -6.51865 0.428897
0.335632 -6.51391 0.42928
0.507983 -6.34424 0.446397
0.494541 -6.50651 0.429083
0.563934 -6.52191 0.428863
0.418543 -6.57565 0.451508
0.501527 -6.44763 0.444613
0.483235 -6.39728 0.402259
0.43101 -6.41609 0.443868
0.312474 -6.6127 0.434638
0.497128 -6.57857 0.481046
0.335298 -6.51617 0.430234
0.0467494 -6.18792 0.412686
0.0467494 -6.18792 0.412686
0.212572 -5.76199 0.506043
0.270122 -5.85034 0.479564
0.131955 -5.8202 0.471714
0.131428 -5.81808 0.46142
0.564566 -6.12959 0.412241
0.56394 -6.13173 0.429327
0.367007 -6.23595 0.40355
0.36493 -6.23571 0.418674
0.489822 -6.10644 0.421584
0.498215 -5.91023 0.441783
0.50043 -5.90676 0.468504
0.52908 -5.96978 0.428186
0.427474 -5.79866 0.447351
0.645767 -6.65467 0.456428
0.757912 -6.84343 0.47077
0.701961 -6.89865 0.449046
0.826428 -6.73549 0.434894
0.78342 -6.63095 0.445011
0.767185 -6.72339 0.433302
0.646381 -6.65307 0.424424
0.810445 -6.74181 0.435
0.755155 -6.84294 0.462312
0.652123 -6.84705 0.462055
0.634151 -6.65928 0.388527
0.814218 -6.74438 0.462693
0.683834 -6.86993 0.473808
0.747536 -6.74188 0.365363
0.678241 -6.43011 0.465127
0.620915 -6.34797 0.448779
0.623925 -6.34722 0.440022
0.613735 -6.42654 0.423085
0.721344 -6.47582 0.429756
0.83989 -6.51195 0.438627
0.838822 -6.51087 0.450605
0.679121 -6.38705 0.421193
0.757959 -6.42444 0.451823
0.776871 -6.60859 0.423796
0.776871 -6.60859 0.423796
0.709627 -6.55504 0.446834
0.679419 -6.38814 0.422042
0.74495 -6.41903 0.410502
0.781893 -6.60954 0.437399
0.735504 -6.41377 0.454618
0.853518 -6.45537 0.42977
0.656939 -6.49387 0.440123
0.955027 -6.80689 0.443286
1.07842 -6.84454 0.440365
0.946933 -6.89487 0.459759
1.14875 -6.65032 0.382717
0.943339 -6.89599 0.484192
1.03938 -6.50102 0.39875
1.01685 -6.39791 0.440626
1.02207 -6.40254 0.405386
0.922148 -6.46007 0.422557
1.16217 -6.60019 0.382444
1.02287 -6.40324 0.409325
0.816637 -6.29145 0.433374
0.689039 -6.11553 0.43631
0.646794 -6.26557 0.422029
0.779584 -5.86169 0.430372
0.818574 -5.93187 0.415981
0.853023 -6.01636 0.403761
0.821474 -5.9173 0.36214
0.819111 -5.9311 0.4138
0.776548 -5.85239 0.411514
0.931679 -6.07471 0.422201
0.93586 -6.07248 0.428477
1.15237 -6.14229 0.381116
1.11388 -6.31859 0.415311
0.896427 -5.91565 0.424633
0.163939 -5.72706 0.487191
