ply
format ascii 1.0
element vertex 224
property float x
property float y
property float z
property uchar diffuse_red
property uchar diffuse_green
property uchar diffuse_blue
property int32 number_of_camera_sees_this_point
property float vsfm_cnx
property float vsfm_cny
property float vsfm_cnz
end_header
-0.456162724389 -0.0596163619723 13.0280540494 139 145 147 5 -0.00569527935118 0.00221436123598 -0.999981330024
-0.562268379052 -0.637661890344 13.2540667063 16 22 21 4 0.00716014014855 0.0445296679607 -0.99898240278
0.428365945255 -0.715450646982 14.1268943514 155 155 153 5 -0.0665794501369 0.0475681287595 -0.996646602335
-0.522700782089 0.187366322596 12.8893852855 160 160 160 5 -0.000690894537514 -0.0165887433139 -0.99986215863
-0.0917520491298 -0.904780462907 14.0730073555 115 117 114 5 -0.0306427956737 0.0610041009054 -0.997667038017
-0.694822965339 -0.278523745657 12.7745041972 155 158 162 5 0.0125236124019 0.0190888319245 -0.999739353846
-1.17694021854 -0.218253079253 13.0202730029 154 154 154 5 0.0486050087266 0.0141717970793 -0.998717534288
-1.1043836399 0.100507096918 13.248515698 152 152 152 5 0.0424296956875 -0.00969449130472 -0.999052419927
-1.37868705505 0.251350736051 13.7885593624 151 153 154 4 0.0598202691734 -0.019987719581 -0.998009031253
0.0620843267174 0.724558032278 13.8491222678 157 157 157 5 -0.0420302916654 -0.05349294829 -0.997683295974
-1.45984298122 -0.394391091313 13.8003100415 62 72 76 5 0.0659711193295 0.0258906972641 -0.997485580452
0.175960515512 0.176811120892 13.5541186008 158 158 159 5 -0.0512206087653 -0.0150025991037 -0.998574669846
-0.976213288186 -0.534409608425 13.0732128976 135 142 149 5 0.033352758655 0.0378544230193 -0.998726507182
-0.976213288186 -0.534409608425 13.0732128976 135 142 149 5 0.033352758655 0.0378544230193 -0.998726507182
-0.528093605397 -0.962816869143 13.9516915696 115 117 114 5 -0.000229455222656 0.0656218063571 -0.997844539936
0.0650901380232 0.426175094247 13.6525780043 156 155 155 4 -0.0376882689071 -0.0325180285862 -0.998760317696
-0.328077837405 0.466380261454 13.3063962342 153 154 155 5 -0.0150144754377 -0.0366652954848 -0.99921480255
-1.00655684334 0.947760807164 14.1532757438 153 152 152 5 0.0329318072706 -0.0678101127167 -0.997154594174
-0.295151335051 -0.74680726854 13.716429879 129 127 121 5 -0.0169084192652 0.0513084552028 -0.998539707664
-0.958037298826 0.660445767836 13.546977939 144 141 137 5 0.0308888679329 -0.0500546758625 -0.99826870494
-1.56720636233 -0.0665064297738 13.9100998764 153 153 153 5 0.0730201772511 0.00255640345317 -0.997327187294
-0.868488792207 0.146166550171 12.9401405599 19 20 17 5 0.025542671138 -0.0133928930665 -0.999584014661
-0.868488792207 0.146166550171 12.9401405599 19 20 17 5 0.025542671138 -0.0133928930665 -0.999584014661
-0.664776237178 -1.0659444718 14.1009411458 72 86 83 4 0.00912343059031 0.0716351440725 -0.997389176374
-0.664776237178 -1.0659444718 14.1009411458 72 86 83 4 0.00912343059031 0.0716351440725 -0.997389176374
-1.11782665014 -0.723464231725 13.4049115716 31 42 43 5 0.0428786006278 0.0507349054169 -0.99779125822
-1.57299951109 -0.859471950787 14.1770642618 132 140 147 4 0.0758170299258 0.0567374680057 -0.995506221828
-0.130957950821 0.289446768372 13.2484763992 70 68 60 5 -0.0296869634371 -0.0237057905966 -0.999278099277
-0.891294270243 1.0564527674 14.1944537067 112 105 93 5 0.024868038609 -0.0751088150517 -0.996865209824
-0.283856398503 -1.17131772209 14.2647417716 141 139 135 2 -0.016702588997 0.0769595537336 -0.996894302627
-1.876146939 -0.365373576887 14.193284689 83 85 77 5 0.0927686589412 0.0231297342015 -0.99541900289
-1.876146939 -0.365373576887 14.193284689 83 85 77 5 0.0927686589412 0.0231297342015 -0.99541900289
0.646962647975 0.00724131701433 13.9397264392 7 15 20 5 -0.0828213554127 -0.00263771673295 -0.99656091913
-0.897463652388 0.815010548868 13.9072261116 120 113 102 4 0.030244020663 -0.0590822847245 -0.997794860102
-0.0569805776554 -0.424663869364 13.4354367066 123 130 137 5 -0.0346717754908 0.0288351391903 -0.9989826839
-0.516147680281 0.692293244935 13.6257948369 147 146 140 5 -0.0011041245689 -0.0520833265559 -0.998642132099
-0.628901565422 -0.826514787057 13.7778720584 42 49 43 5 0.00694354856459 0.0567560628947 -0.998363929866
0.00566145182109 0.209461075198 13.2392210782 155 157 156 5 -0.0398277742496 -0.017783032391 -0.999048303215
-1.95463585083 -0.274147780704 14.1961874616 150 153 152 5 0.0981252668993 0.0168232166229 -0.995031864504
-0.752308761246 0.828377574139 13.8505452568 145 145 142 4 0.0201897657187 -0.0602666993263 -0.997978105127
-0.055696852522 -0.410862636524 13.4894694351 124 133 140 3 -0.0342788985147 0.0276439378982 -0.999029914374
-0.977198926302 -1.11849872903 14.0233217695 83 96 97 5 0.0311592157985 0.0760982637083 -0.996613344046
-1.5412133713 -0.508164211613 13.8032292406 135 138 142 5 0.0716928903545 0.0339516537282 -0.996848742128
-0.559542368842 0.400661959314 12.9718890024 150 150 150 5 0.0021040221103 -0.032628820918 -0.999465323629
-1.38515782191 -0.953772055838 14.0549919882 121 128 135 5 0.0595101177771 0.0644063392303 -0.996147764817
-0.429743067148 0.608974677617 13.4609016058 115 102 85 4 -0.00749540482796 -0.0464243326574 -0.998893688159
-1.61188027393 -0.334839836756 13.826319023 153 151 154 5 0.0765832492925 0.0216020767038 -0.996829150963
-1.70833387201 -0.64946689122 14.1479023075 149 150 154 5 0.0814750222985 0.0428876817187 -0.995752211897
-0.0920874206687 -1.08621740579 14.225888583 141 138 131 5 -0.0302679916339 0.0728239013041 -0.996885413717
-0.0365872957752 1.0124278736 14.2451411795 151 150 146 5 -0.0340453392439 -0.0718099221378 -0.996837123084
-0.953531678416 -0.868594290996 13.7799997176 94 107 111 3 0.0299698131354 0.0594408026022 -0.997781840528
-1.36726960346 0.00828239895967 13.6001833594 41 47 48 5 0.0602883355282 -0.00278250451583 -0.998177125699
-1.36726960346 0.00828239895967 13.6001833594 41 47 48 5 0.0602883355282 -0.00278250451583 -0.998177125699
-0.104508413589 0.180542765528 13.0750184174 154 154 156 5 -0.0320668217611 -0.0158359893881 -0.999360265561
-0.830160621931 -0.583164559314 13.0464453275 37 43 38 5 0.0224420160082 0.0416053745584 -0.998882049456
-0.266179647691 0.545276155221 13.5121407507 153 152 151 5 -0.0192766970595 -0.0418415308 -0.998938284005
-0.926892446035 -0.0917792668066 13.0391757123 35 40 38 5 0.0297510401754 0.00463465661337 -0.999546594995
-0.0772605428215 -0.73550789978 13.7803256684 148 147 148 5 -0.0323391788651 0.050252138328 -0.998212853105
-0.857386603186 -0.501224950041 12.9339822512 120 128 135 5 0.024699118675 0.0357488122884 -0.999055541978
-0.103259834681 0.52310745234 13.596159366 152 150 148 5 -0.030914457732 -0.039976347903 -0.998722277669
-0.286083677412 -1.04867842441 14.1107504576 139 137 134 5 -0.0170439764361 0.0708321573235 -0.997342623353
-0.738633677369 -1.16802838605 14.2652403215 106 114 115 5 0.0142544219101 0.0782496641235 -0.996831882275
-0.74250289967 -0.769740284693 13.5788013231 74 82 79 5 0.0152483036631 0.053474670588 -0.998452777472
-0.750158642067 0.688896965702 13.5797637011 146 145 141 5 0.0158017630105 -0.0520055321629 -0.998521771876
-0.750158642067 0.688896965702 13.5797637011 146 145 141 5 0.0158017630105 -0.0520055321629 -0.998521771876
-1.00603044339 -1.00657811476 13.8838166102 110 121 128 5 0.0335129842263 0.0689778967979 -0.997055128687
-0.588587684098 -0.0812935126011 12.6647686994 105 116 107 5 0.00439602789734 0.00395819877554 -0.999982503648
-0.588587684098 -0.0812935126011 12.6647686994 105 116 107 5 0.00439602789734 0.00395819877554 -0.999982503648
-0.368037575935 -1.05055177909 14.1460388253 11 19 18 5 -0.0113200086758 0.0707942277638 -0.99742670644
0.887483400595 0.0942681581274 14.0899239953 157 157 159 5 -0.098531588597 -0.00865396725366 -0.995096294285
0.0160840541988 -0.347776725628 13.4931918528 152 155 155 5 -0.039838084471 0.0231150045103 -0.998938748669
-1.12302783883 0.652845182088 13.7342021101 31 26 24 5 0.0422532713925 -0.0488224094147 -0.997913339622
-0.189447701897 0.492432835233 13.5356110219 108 95 71 5 -0.024809026655 -0.0379361876973 -0.998972150693
-0.990176431588 -0.227834295442 13.0244514878 148 147 145 5 0.0345446460245 0.0148979247568 -0.99929210908
0.125597172162 -0.938326484803 14.1232114142 152 151 152 5 -0.04560067021 0.0630777670514 -0.996966285378
-0.648495880039 -1.12935080398 14.2515189345 73 87 84 5 0.00806840098596 0.0756814841944 -0.997099400188
-0.508404778377 -0.856953529393 13.8738077382 100 102 94 5 -0.00162583258871 0.0585197588166 -0.99828492651
-0.755030447583 0.131194430105 12.7595526585 147 147 148 5 0.0171693081554 -0.0124292152264 -0.999775339497
-1.28115649763 -0.364672514381 13.2566760898 28 38 43 5 0.0554425422751 0.024753543607 -0.998154991264
-0.189418403381 -1.10163371133 14.2247793883 113 110 97 3 -0.0171336909266 0.072344227081 -0.997232545319
-1.48144173812 -0.290091933642 13.6744695869 24 35 39 5 0.0681145755793 0.0186423330403 -0.997503317294
-0.793020222142 -0.43563582484 12.7643563122 55 59 54 5 0.0200752347161 0.0311802809557 -0.999312150947
-0.997835581383 0.542077235692 13.6800592881 15 8 6 2 0.0326949092773 -0.0401908227604 -0.99865696847
-0.997285501001 0.538902697778 13.6962742959 15 8 6 3 0.0388519579771 -0.0400308645965 -0.998442815208
-1.11053441619 -0.562705926855 13.1399985622 17 31 37 5 0.0431969654911 0.0397612976362 -0.998275042953
-0.446512160888 -1.04079674208 14.1442481625 118 119 117 5 -0.00587981891683 0.0701328096419 -0.997520333999
-0.564779642106 -0.384918634952 12.8218300283 145 149 154 5 0.00252448717439 0.0271674329863 -0.999627709475
-0.369540494123 0.704348123834 13.6975153135 148 145 140 4 -0.00673180531249 -0.0521565648753 -0.99861623036
-0.369487155918 0.703981255645 13.6965143948 148 145 140 5 -0.0116061257563 -0.0526515167551 -0.998545500029
-1.44370879479 -0.128977372382 13.7036971437 78 78 70 5 0.0652945478426 0.00707001552595 -0.997840987784
0.562146163842 -0.0215054517308 13.9871300366 139 139 141 5 -0.0766412378469 -0.000614094134946 -0.997058545698
-1.17398489409 -0.634135837086 13.3332988616 87 104 114 5 0.0472367752533 0.0444352733657 -0.997894881009
-1.17264487977 -0.636315877409 13.338863123 87 104 114 2 0.046032256355 0.0436769731697 -0.997984645869
-1.3983477672 0.0862202264979 13.6010123333 151 151 149 5 0.0625160153589 -0.00840641899203 -0.998008557049
-1.51568892578 -0.731829780128 14.0090396032 127 132 141 5 0.068846589633 0.0490993603429 -0.996418285616
-1.51568892578 -0.731829780128 14.0090396032 127 132 141 5 0.068846589633 0.0490993603429 -0.996418285616
-1.10459550061 -1.02101951275 13.7851907924 41 59 60 5 0.0407394392093 0.0704649479228 -0.996681990008
-0.617728308553 0.631955317863 13.5016804182 83 72 57 5 0.00626677746143 -0.0481745591643 -0.998819272616
-1.46314287053 -0.431510453548 13.5677796406 28 36 43 5 0.0673031702564 0.0290062039927 -0.997310845927
-0.181250457475 0.356032570729 13.2991213498 132 128 118 5 -0.0258615256828 -0.0285351741734 -0.999258187519
-0.992522991984 0.186873669948 13.1630997601 122 122 122 5 0.0343658412076 -0.016203465019 -0.999277957667
-0.0269872389352 0.509217218266 13.6448912825 82 67 55 5 -0.0362864831802 -0.0388305375255 -0.998586741597
-0.0269872389352 0.509217218266 13.6448912825 82 67 55 5 -0.0362864831802 -0.0388305375255 -0.998586741597
-1.77966294602 -0.466101113712 14.1436745157 152 152 155 5 0.0864418569956 0.0301975645405 -0.995799132584
-1.29088470146 0.842088444016 14.1442027933 69 60 52 5 0.0526464156407 -0.0604992769029 -0.996778908492
0.0622249486525 0.618951045812 13.5843491153 156 157 157 5 -0.0428653353483 -0.0469051704389 -0.997979192174
-1.35439151015 0.366672614549 13.8376452502 151 151 150 5 0.0583478247449 -0.0281604455724 -0.997899053338
0.208757219891 -0.644531278935 13.964672749 150 150 150 4 -0.0468303666129 0.0427569820144 -0.997987353252
-1.37548218875 -0.713220202436 13.7831640767 99 112 120 5 0.0600214240057 0.0485969877326 -0.997013420894
-0.68458542496 0.533046521947 13.2473800359 144 143 137 5 0.0113323848699 -0.0417634284691 -0.999063257805
-0.450287507601 -0.432650417669 12.9431652227 121 121 118 5 -0.00617706571193 0.0305360350596 -0.999514579394
-1.24643914706 0.337963810073 13.682604732 37 40 43 4 0.0555020029769 -0.0261630141153 -0.998115736955
-1.43913640212 -0.0305258711286 13.6575627023 141 142 138 5 0.0651839190189 1.87128133241e-005 -0.997873266678
0.178468801039 -0.203681809897 13.6365542602 150 151 153 5 -0.0510968218622 0.0124902124157 -0.998615596408
-1.04946186114 -0.634470449113 13.2324756598 115 127 135 5 0.0383762347741 0.0448093956537 -0.998258174355
-0.873141136999 -0.789265814412 13.5819719134 33 45 45 5 0.0246769149499 0.0548596843588 -0.998189092758
0.416597527031 0.168987484577 13.8169466698 143 143 142 5 -0.0672878943676 -0.0141519891782 -0.997633229435
-0.838412442411 0.971519119261 14.1146153862 146 143 139 5 0.0213414456018 -0.0696575585081 -0.997342652874
-1.21189413297 -0.481010005528 13.1707443846 29 36 40 5 0.0506391436124 0.0335791074089 -0.998152353441
-1.31968500362 -0.446313465647 13.3564530924 78 95 102 5 0.0578503133608 0.0305612718905 -0.997857379541
-1.31968500362 -0.446313465647 13.3564530924 78 95 102 5 0.0578503133608 0.0305612718905 -0.997857379541
0.369467504841 -0.80201356577 14.0894328844 156 156 156 5 -0.062653847813 0.0537148332234 -0.996588787839
-1.2046646418 0.657010004894 13.8208294571 144 143 138 5 0.0477781874244 -0.0488049217361 -0.997664935948
-1.24436115366 -0.309420365071 13.2385446897 153 152 151 5 0.0528035155005 0.020696389337 -0.99839042875
-1.49813570925 0.82521608607 14.1658073212 157 157 157 4 0.0627183624911 -0.0594370547697 -0.996259827318
-0.300679734731 -0.933987175231 14.0169988935 134 132 126 5 -0.0161458882384 0.063302292365 -0.997863783326
0.0333357995112 0.492827812368 13.6506808022 154 155 155 5 -0.040603289841 -0.0376305400825 -0.998466481815
-1.57141077578 -0.262770401864 13.852197086 137 142 144 5 0.0736036044827 0.0164655002453 -0.997151641782
-0.888074814294 0.0634441364039 12.9471572655 137 142 148 5 0.027014826034 -0.00710978012745 -0.999609748953
0.749571733569 -0.100657155193 14.1211975564 21 27 36 4 -0.083415663054 0.00483271383661 -0.996503121939
-1.19597185784 -0.545548768755 13.2268294881 91 110 116 5 0.0492446794043 0.0382231417229 -0.998055085147
-1.19597185784 -0.545548768755 13.2268294881 91 110 116 5 0.0492446794043 0.0382231417229 -0.998055085147
-0.156456685119 -0.648720737221 13.7178868896 140 141 144 5 -0.0268332643327 0.0442854412048 -0.998658487984
-1.48842787055 0.043320470096 13.7610332176 63 66 63 5 0.0682038433917 -0.00524786811609 -0.997657604405
-1.48842787055 0.043320470096 13.7610332176 63 66 63 5 0.0682038433917 -0.00524786811609 -0.997657604405
-1.43709481357 -0.216652583224 13.6535583827 146 147 146 5 0.065050675583 0.0133971556306 -0.997792025338
0.0658941345315 0.897085976168 14.1091810029 153 152 151 5 -0.0415005375127 -0.0644862948963 -0.997055275878
0.751377345949 0.264894768395 13.9974708029 93 87 77 5 -0.0897197451108 -0.0206585148159 -0.9957527771
-0.668430735139 -0.520034385306 12.9979103627 67 76 70 5 0.0103209484856 0.0370041857224 -0.99926181167
-0.650044395191 -0.925512555645 13.8798901108 50 60 52 5 0.00838790543302 0.0633249805332 -0.997957709466
-0.759207887461 0.303253672643 12.8773277491 62 52 44 5 0.0173331474429 -0.0254373418986 -0.999526139547
0.259427483502 -0.926888327245 14.1582131823 143 141 140 4 -0.0496268355199 0.0615138291599 -0.996871719941
-0.436850400372 0.541442553101 13.3426352237 110 98 81 5 -0.00696938048731 -0.0420889438456 -0.99908955982
-0.562237885347 -0.0150366587027 12.5765212066 158 159 161 5 0.00236720595468 -0.0011890748381 -0.999996491212
-1.01727153652 -0.743300591894 13.4986925835 98 114 120 5 0.0352924544158 0.0518422676964 -0.998031473422
-1.07199566942 -0.78648312369 13.5501045072 21 36 40 4 0.0387641199284 0.0543935147084 -0.997766850804
-0.893000873478 -0.40141201806 12.7688517743 139 144 144 5 0.0277472928239 0.0285350667127 -0.999207604909
-0.464376741634 -0.61988748888 13.2508447251 16 23 26 5 -0.00498047156601 0.0437015475341 -0.999032216521
-0.122170147939 0.452411072684 13.5261000792 140 136 125 3 -0.0361313203149 -0.0349866998006 -0.998734428429
-1.20649235356 -0.872079398347 13.8678923813 100 113 116 5 0.0477215521613 0.059544619642 -0.997084295198
-0.333364659478 0.26315986403 12.9171119629 120 120 111 4 -0.0151077423064 -0.0222322538826 -0.999638676227
-1.03602646163 0.25842960408 13.3072679486 25 33 36 5 0.0372063900463 -0.0213093685119 -0.999080374821
-0.334807485917 -0.668844920255 13.53767178 91 92 85 5 -0.0142623262535 0.0463334071524 -0.998824209474
-0.976823831103 -0.359509487809 12.8008865957 56 62 58 5 0.0341003103837 0.0252484849726 -0.999099435911
0.323840532918 -0.265555010765 13.9252550551 150 151 153 5 -0.0602625478515 0.0165910278942 -0.998044669902
0.0111456620853 0.109550691626 13.281508239 107 108 101 4 -0.0451313466119 -0.0103092277884 -0.998927865952
-0.92880458487 -0.458897323531 12.9120657113 111 119 123 5 0.0301643992239 0.0325888939128 -0.999013549965
0.455021878507 0.504100941896 13.9926248043 132 126 114 5 -0.0690956131887 -0.0374574873931 -0.99690658182
-1.67320881144 -0.0140577935818 14.0278221852 130 134 135 5 0.079790404036 -0.00113332638266 -0.996811018697
-1.82352621834 -0.295167734533 14.183862632 78 82 75 5 0.0892345754757 0.0183037273291 -0.995842439398
-1.82352621834 -0.295167734533 14.183862632 78 82 75 5 0.0892345754757 0.0183037273291 -0.995842439398
-1.17469420698 -0.978310169777 13.7780280662 108 120 123 5 0.0457445359318 0.0674613357364 -0.996672667235
-1.32331618279 -0.510501862489 13.4729830247 36 48 49 5 0.0576185094295 0.03497140205 -0.997725968595
-0.730113293977 -0.965320850623 13.9222192447 91 101 100 4 0.0185353814026 0.065265202024 -0.997695791833
0.454798660371 0.042947316378 13.8593161152 135 138 141 5 -0.0697819278318 -0.00518367702277 -0.997548801834
0.111552721656 -0.205914068612 13.6085071883 153 155 155 4 -0.0411380084755 0.0125458670468 -0.999074704654
-0.45798586919 0.975305667721 13.9765018823 130 127 116 5 -0.00514754677293 -0.0706109299832 -0.997490651249
-0.069684338984 0.42246030319 13.513609718 77 64 55 5 -0.033546579636 -0.0329076963284 -0.998895245017
0.29927309622 0.344972675283 13.7376927298 156 155 156 5 -0.0593116327971 -0.0268096904091 -0.997879436964
-1.19847720654 -0.42565853576 13.1339351484 119 129 134 5 0.0497843321936 0.0295418653823 -0.998322993053
0.108080835778 0.30821862332 13.5080658306 94 82 72 5 -0.0464645166304 -0.0246065592094 -0.998616826384
0.108080835778 0.30821862332 13.5080658306 94 82 72 5 -0.0464645166304 -0.0246065592094 -0.998616826384
0.423259504591 -0.302256472375 13.9666047462 151 153 155 5 -0.0670387589565 0.0191138272722 -0.997567274125
-1.33713642906 -1.09410525656 14.1294005261 110 119 123 5 0.055849694516 0.07377597127 -0.995709755745
0.828682464298 0.0541769147392 13.9267725476 151 152 152 5 -0.0955696592188 -0.0059373955187 -0.995405036943
-1.57198332712 -0.471763342494 13.7628944074 141 142 144 3 0.0677282212408 0.031495404138 -0.997206562135
-1.57276161966 -0.472007626114 13.769708579 141 142 144 5 0.0741019181013 0.031455209554 -0.996754471034
0.000461649156769 -0.994588937578 14.1691872645 147 146 144 5 -0.0367996898681 0.0667803367439 -0.99708884732
-0.892383872811 -0.620281471328 13.1815884058 45 56 57 5 0.0268461176737 0.04394142929 -0.998673338363
0.54790423647 0.20926126406 13.9494678468 141 140 138 3 -0.0682208622121 -0.0165807386029 -0.997532452137
0.19577936362 -0.816639617894 13.9536634657 150 150 148 3 -0.057276343078 0.0552868936401 -0.996826353943
-1.14716126318 -1.08335059812 13.7982380785 111 123 130 2 0.0427298623748 0.0733076683604 -0.996393569139
-1.75780978866 -0.205867418036 14.2107000101 49 53 54 5 0.0845820025485 0.0121169023815 -0.996342845371
-1.75780978866 -0.205867418036 14.2107000101 49 53 54 5 0.0845820025485 0.0121169023815 -0.996342845371
-1.09137421983 -1.16890227195 13.9836864528 120 129 137 5 0.0392241015026 0.079799223052 -0.996038931901
-0.840929216631 -1.12895723796 14.1758273485 111 120 126 5 0.0214163137488 0.0760353761105 -0.99687509904
-1.13490382219 0.301590873365 13.4868138204 47 56 55 5 0.0439077933656 -0.0241662365565 -0.998743259648
-0.492541284159 -0.375982694996 12.7786592816 86 94 92 5 -0.00301619663614 0.0265712470763 -0.999642371744
-1.3016403198 -0.732110937413 13.7232506946 27 39 42 5 0.0550155439542 0.0501663829635 -0.997224460161
-0.031903028853 -0.912752896323 14.0776244089 145 143 143 5 -0.0347976245344 0.0615298662697 -0.99749847162
-0.646823649877 0.379414744679 12.9887700742 102 95 82 5 0.0086973288968 -0.0309809890167 -0.999482133302
-0.234627728201 0.780298607243 13.8359113502 150 150 146 5 -0.0210465787762 -0.0575229985527 -0.99812231022
-0.0601505415185 0.353179477649 13.420955493 150 145 140 5 -0.0344779677073 -0.0280643605831 -0.999011341982
0.184772956266 -0.740523860873 13.9459600929 151 150 149 5 -0.0503602437436 0.0499806788273 -0.997479712873
-1.77835388732 -0.353363375478 14.1017696132 150 152 152 5 0.0866189698535 0.022456115127 -0.995988391978
-0.562816855469 -0.444769098941 12.8952204003 12 19 27 5 0.00236304035205 0.0315702923144 -0.999498740711
-0.0566777546429 -0.967804026217 14.1239087822 105 107 101 4 -0.0376412528642 0.0655544866782 -0.997138779388
-0.0563815290029 -0.96758214806 14.1273348041 105 107 101 5 -0.032970771583 0.0651154878646 -0.997332894003
0.31558157609 1.01878255122 14.2528209818 129 130 118 4 -0.0629357093354 -0.0723964814225 -0.995388289045
0.31558157609 1.01878255122 14.2528209818 129 130 118 4 -0.0629357093354 -0.0723964814225 -0.995388289045
-1.2106007269 -0.0383675161598 13.4737997344 64 72 72 5 0.049464459284 0.00059064182209 -0.998775709762
-1.34149245629 0.111725934754 13.7024948398 89 91 86 5 0.0580076823809 -0.0101749779184 -0.998264282948
-1.34149245629 0.111725934754 13.7024948398 89 91 86 5 0.0580076823809 -0.0101749779184 -0.998264282948
-0.0208692115472 0.42386331249 13.5526238872 151 151 148 5 -0.0369817757156 -0.0329121078864 -0.99877381895
-1.1054123184 -0.665013202306 13.3051527319 24 36 41 5 0.0422861131182 0.046809831522 -0.998008378878
0.875972479709 0.327347028088 14.1793271519 150 150 147 4 -0.102052340644 -0.024729602839 -0.994471601662
0.0240008049171 -0.859946782613 13.9822173955 152 152 152 3 -0.0451495464498 0.0582389049838 -0.997281178205
-1.47309743308 -0.950937220026 14.1636766403 54 67 68 5 0.0651265718347 0.0637038947429 -0.995841525262
-1.25479184259 0.738257887589 13.9435096716 143 142 135 5 0.0508729896645 -0.0540787378564 -0.997239905456
0.102397602315 -0.811489612831 13.9477966525 147 148 148 5 -0.0445622580334 0.0549682094769 -0.997493208551
-0.361238036526 -0.87896167401 13.9398497602 18 22 20 5 -0.0119769560551 0.0597885033155 -0.998139212432
-0.0654565898825 0.895066015394 14.1176088159 104 95 78 5 -0.0323649411856 -0.0643307250733 -0.997403663716
0.513914847741 0.130989721142 13.9111272734 109 109 92 4 -0.0786119281206 -0.0113459104001 -0.996840727034
-1.2676669392 -0.86546905245 13.8661046075 29 43 43 5 0.052042715767 0.0590734563972 -0.99689612422
-1.11893398935 0.565970016841 13.692286842 129 128 120 5 0.0420978775293 -0.0427539944561 -0.998198309288
-1.40766644306 0.719423303059 14.0851101052 154 154 152 4 0.0649869204422 -0.0516924955027 -0.996546329119
-0.937984247459 0.985268156691 14.168535881 149 144 142 5 0.0281501401663 -0.0703338274355 -0.997126231892
-0.99947879273 0.60081367125 13.5640620579 118 114 105 5 0.0338522670538 -0.0456818016882 -0.998382290012
0.0839497460038 -0.132608021369 13.3942669496 118 120 115 5 -0.0451034251255 0.00750505289221 -0.99895413069
0.0839497460038 -0.132608021369 13.3942669496 118 120 115 5 -0.0451034251255 0.00750505289221 -0.99895413069
-0.814373668769 -0.519934561237 12.992659509 112 118 118 5 0.0213439812559 0.0370050018436 -0.999087115472
-0.377117184009 -0.720766060968 13.6054117009 114 108 98 5 -0.0111365362876 0.0498486925591 -0.998694690789
1.06915277858 0.0282350562564 14.261772194 154 155 157 5 -0.109700156509 -0.00401222643953 -0.993956627676
-1.45792474203 0.884154609054 14.219567446 125 124 122 5 0.0638391907289 -0.0630344550749 -0.995967476979
