ply
format ascii 1.0
comment author: Caleb Adams & Jackson Parker
comment SSRL CV simple PLY writer
element vertex 1936
property float x
property float y
property float z
end_header
3824.77 -7254.38 5589.08
1867.87 -8185.11 5830.12
1917.39 -8171.62 5789.25
1801.88 -8228.51 5903.44
1793.32 -7960.37 5867.6
1925.91 -8038.16 5803.65
2016.89 -8137.4 5755.28
2141.28 -8144.17 5681.35
2099.85 -7973.68 5732.35
1751.69 -7717.73 5854.68
1975.36 -7732.13 5748.76
1958.64 -7609.5 5653.32
1875.8 -7670.47 5783.28
1759.99 -7434.86 5719.54
1801.03 -7385.19 5714.34
1991.57 -7550.83 5652.85
1908.52 -7379.41 5633.09
1999.94 -7391.93 5646.45
2041.51 -7751.52 5674.29
2090.62 -7772.04 5664.31
1767.69 -7112.98 5674.26
1866.86 -7171.39 5685.12
1958.29 -7341.86 5655.41
1800.67 -7020.06 5630.42
1792.71 -6963.44 5720.43
1784.64 -6911.66 5660.34
1925.14 -6970.14 5642.65
1891.92 -7007.76 5644.76
1950.2 -6928.27 5660.1
1809.26 -6683.66 5730.56
1759.74 -6609.67 5807.34
1809.71 -6618.16 5814.06
1883.86 -6778.88 5692.46
1983.7 -6608.42 5742.69
1875.64 -6559.9 5827.41
1767.04 -6530.01 5807.24
1918.02 -6443.75 5893.71
2099.77 -6637.89 5776.15
2041.78 -6541.69 5758.99
2008.87 -6459.62 5846.01
2100.39 -6434.61 5859.16
2150.12 -6492.5 5823.97
2026.66 -6316.33 6043.44
2159.41 -6345.06 6021.88
2356.53 -6660.39 5645.94
2505.88 -6764.62 5633.18
2415.21 -6624.18 5724.03
2315.68 -6466.65 5802.14
2406.51 -6556.48 5667.1
2424.07 -6450.21 5816.21
2366.28 -6384.83 5906.69
2441.75 -6332.1 6015.46
2531.42 -6619.95 5734.71
2597.98 -6657.89 5751.37
2614.61 -6611.89 5753.72
2672.58 -6599.54 5756.24
2556.97 -6500.55 5843.69
3269.32 -6939.18 5648.7
2846.76 -6694.66 5725.68
2838.78 -6645.25 5773.5
2970.84 -6768.56 5667.04
3079.47 -6686.74 5774.26
3187.09 -6752.73 5733.99
3286.82 -6798.72 5755.71
3286.82 -6798.72 5755.71
3443.08 -7105.65 5641.66
3443.08 -7105.65 5641.66
3402.86 -7002.12 5686.46
3402.75 -6869.16 5731.25
3428.11 -6828.3 5776.4
3510.33 -6985.45 5690.8
3461.54 -6865.86 5787.28
3750.3 -7238.66 5628.28
3618.72 -6919.49 5755.86
3610.8 -6853.46 5803.91
3677.14 -6915.46 5769.96
3785.4 -6849.36 5828.43
3569.39 -6803.21 5789.49
3562.04 -6679.72 5900.42
3669.97 -6754.8 5902.18
3778.25 -6776.01 5938.54
3778.25 -6776.01 5938.54
2185.26 -6155.62 6230.16
2211.58 -5962.12 6421.48
1770.8 -5648.7 6404.04
1929.72 -5366.62 6618.13
1929.72 -5366.62 6618.13
2276.77 -6213.72 6200.39
2268.19 -6167.5 6171.63
2335.68 -6056.84 6342.87
2477.64 -5878.43 6448.38
2552.41 -5965.95 6431.12
2503.62 -5709.17 6613.59
2487.56 -5714.67 6709.53
2471.05 -5647.97 6720.75
2471.05 -5647.97 6720.75
2134.85 -4305.55 7648.82
2201.74 -4326.97 7701.98
2310.03 -4398.03 7683.14
2550.85 -4463.13 7499.71
2550.85 -4463.13 7499.71
2684.68 -4509.92 7583.59
2543.13 -4397.17 7611.95
2618.21 -4430.65 7616
2684.93 -4401.31 7626.13
2792.96 -4543.53 7586.29
-250.228 -4060.04 7650.19
-133.397 -4112.79 7477.91
91.6302 -4108.73 7514.77
141.819 -4026.57 7684.92
225.13 -4017.87 7684.71
658.47 -4111.89 7463.35
533.579 -3924.22 7578.05
-250.159 -3090.28 7649.89
-333.398 -2666.51 7691.68
-200.049 -2469.11 7714.14
-258.467 -2242.32 7697.66
-350.258 -2204.49 7683.14
-300.193 -2107.7 7648.5
-225.125 -2183.58 7695.92
-275.108 -2162.27 7645.54
-275.108 -2162.27 7645.54
950.554 -4087.93 7615.55
867.455 -3983.48 7636.41
900.551 -4029.51 7635.91
1067.16 -4179.83 7570.18
1109.05 -4092.26 7640.38
1217.42 -4138.11 7600.17
1367.49 -4112.98 7631.21
1526.24 -4138.7 7697.77
1659.55 -2140.56 7661.54
-250.167 -1931.32 7649.81
-325.192 -1809.55 7644.5
2743.77 -3419.88 7683.72
2618.22 -3155.24 7615.92
2735.36 -3357.16 7690.34
2759.73 -3234.62 7587.83
2693.08 -3247.41 7621.25
2001.64 -2862.52 7714.1
1917.87 -2668.76 7608.86
2226.55 -2895.54 7663.42
2226.55 -2895.54 7663.42
2059.15 -2701.84 7539.26
2143.11 -2853.48 7643.42
2167.52 -2672.44 7541.63
1850.98 -2500.98 7599.55
2000.91 -2601.39 7565.84
2000.91 -2601.39 7565.84
1975.97 -2525.93 7583.39
1792.64 -2265.98 7597.61
1792.64 -2265.98 7597.61
1867.21 -2122.77 7503.19
1950.58 -2219.23 7501.65
2166.86 -2419.89 7414.52
2042.16 -2541.95 7473.04
2075.55 -2504.32 7485.34
2075.55 -2504.32 7485.34
2249.95 -2239.26 7370.64
2157.84 -2104.82 7300.8
2392.92 -2983.14 7596.77
2509.5 -3020.33 7549.88
2509.5 -3020.33 7549.88
2476.35 -3062.68 7594.73
2418.04 -2937.38 7643.94
2334.65 -2848.81 7579.85
2450.71 -2625.88 7492.31
2665.53 -3068.3 7222.09
2790.99 -2963.78 7267.65
2406.97 -2372.16 7147.61
2464.96 -2308.94 7100.1
2607.07 -2527.09 7162.73
2531.96 -2451.75 7159.27
2606.45 -2392.59 7078.61
2731.2 -2388.26 7062.32
2613.8 -2274.42 6924.91
2646.66 -2186.5 6881.5
2771.42 -2240.51 6864.75
2771.42 -2240.51 6864.75
2704.81 -2156.78 6854.61
2555.68 -2161.75 6973.48
2275.32 -2558.3 7416.14
2324.29 -2385.61 7276.83
2390.96 -2376.88 7243.3
2818.62 -3478.31 7667.16
2802.23 -3537.5 7699.58
2916.8 -3283.77 7406.81
2916.8 -3283.77 7406.81
2899.95 -3148.93 7375.92
2983.28 -3312.31 7374.08
2958.27 -3257.77 7370.31
2818.07 -3347.49 7560.15
2934.1 -3342.56 7471.76
3183.72 -3480.39 7424.21
3085.08 -3666.59 7607.27
3435.64 -3901.56 7651.03
3642.96 -3984.29 7533.63
3642.96 -3984.29 7533.63
3765.47 -3809.56 7247.89
3765.47 -3809.56 7247.89
3722.41 -3439.49 7094.13
3614.5 -3150.81 7134.96
3656.2 -3259.76 7140.84
3796.96 -3279.97 7055.85
3739.14 -3376.76 7103.7
3468.1 -3321.65 7542.89
2977.89 -2109.42 6642.23
3227.62 -2548.76 6635.3
3077.59 -2200.83 6606.84
3580.01 -2327.62 6049.61
3383.19 -2563.64 6350.02
3031.26 -3092.12 7084.75
3047.87 -2937.26 7094.96
2989.72 -2929.08 7136.5
3013.78 -2768.9 6991.56
3047.14 -2801.87 6944.84
3122.94 -3059.03 7142.5
3089.11 -2912.01 7059.48
3190.07 -3109.47 7171.8
3214.91 -3063.26 7154.43
3305.92 -3016.56 7083.5
3163.02 -2747.34 6900.47
3252.95 -2825.48 6725.27
2857.08 -2942.23 7200.47
3065.49 -3126.46 7202.07
2829.76 -2395.6 6865.97
2988.4 -2559.21 6931.35
2963.08 -2416.51 6885.47
2848.13 -2610.69 7122.21
2838.06 -2257.21 6859.97
3337.34 -2897.58 6848.82
3546.17 -2902.21 6935.2
3364.7 -3109.31 7141.07
3736.44 -2892.85 6808.2
3639.09 -3108.34 7074.4
3639.09 -3108.34 7074.4
3630.68 -3066.73 7081.04
3689.21 -3142.07 7095.79
3697.32 -3058.28 7090.99
3697.32 -3058.28 7090.99
3655.34 -2978.4 7042.39
2000.04 -2071.87 7374.83
1916.37 -1895.27 7313.05
2066.23 -1924.53 7286.3
2265.75 -2066.65 7218.12
2315.27 -2078.56 7133.9
2273.85 -2074.76 7169.75
2315.28 -2087 7133.73
2464.65 -2044.73 7043.56
2571.77 -1637.64 6877.18
2299.18 -2083.28 7229.93
2332.22 -1106.61 7185.76
1983.72 -964.731 7471.86
2257.55 -997.653 7223.37
2240.79 -1001.9 7214.05
2009.33 -201.127 7581.19
2365.72 -980.808 7197.22
2365.72 -980.808 7197.22
2382.25 -888.639 7185.96
2788.08 -1038.55 6852.63
2788.08 -1038.55 6852.63
2399.08 -771.369 7238.57
2723.5 -205.325 7152.5
2673.43 -167.669 7130.75
2781.09 -92.2018 7048.46
2299.99 -159.373 7378.22
2540.71 -134.222 7209.24
2598.92 -234.72 7211.56
2540.99 -113.15 7273.5
2861.17 -2042.4 6611.24
2827.79 -1917.04 6614.07
2827.79 -1917.04 6614.07
2944 -2021.1 6545.46
3240.91 -1948.34 6231.38
3093.11 -1949.5 6469.24
3067.55 -1798.67 6410.4
3249.31 -1639.03 6246.87
3092.67 -1719.21 6427.79
2869.95 -1511.13 6668.33
2903.12 -1469.16 6637.42
2903.12 -1469.16 6637.42
2969.24 -1477.18 6591.61
2977.73 -1322.47 6599.15
2977.99 -1263.98 6641.62
3291.29 -1568.12 6294.71
3233.79 -1434.7 6384.73
3068.05 -1476.76 6451.51
3101.32 -1426.33 6463.79
3059.7 -1426.69 6501.82
3159.2 -1418.08 6423.29
3093.77 -1313.9 6553.36
3233.67 -1095.81 6385.45
3110.11 -1062.73 6520.95
3184.65 -1054.23 6482.82
3372.95 -1989.38 6110.14
3422.25 -1943.3 6069.43
3521.63 -2064.36 6034.93
3504.66 -1955.58 5982.88
3397.86 -1592.66 6128.72
3504.18 -1817.53 5927.05
3513.32 -1675.8 6041.02
3357.04 -1826.94 6206.36
3357.04 -1826.94 6206.36
3373.04 -1684.57 6153.76
3562.74 -1424.8 5984.83
3604.48 -1558.58 6011.96
3794.39 -1127.81 5885.07
3687.55 -1286.92 6009.66
3440.22 -1087.01 6225.95
3440.22 -1087.01 6225.95
3497.83 -1124.42 6179.11
2920.15 -1310.11 6688.98
2928.34 -1075.81 6683.64
3168.83 -966.599 6578.28
3127.43 -899.755 6614.91
3242.43 -978.671 6420.78
3250.85 -1029.01 6436.19
3531.08 -1044.8 6132.55
3646.07 -940.243 6003.2
3687.58 -969.37 6009.54
3687.58 -969.37 6009.54
3745.3 -1002.75 5969.21
3366.88 -853.32 6404.51
3565.08 -840.384 6251.02
3368.63 -656.922 6593
3443.53 -673.736 6618.94
3617.22 -606.529 6503.49
3550.91 -92.0658 6536.53
3807.28 -46.1829 6376.69
3807.28 -46.1829 6376.69
3650.48 -58.5771 6501.24
3584.65 -125.504 6590.36
3742.03 -158.988 6514.68
3832.58 -167.261 6422.9
3733.19 -67.0205 6457.24
3177.85 -778.486 6678.39
3227.67 -724.219 6679.2
3269.51 -678.052 6691.44
2980.4 -322.436 6979.58
3038.86 -305.702 6994.75
2922.46 -259.805 7019.96
2798.04 -155.017 7100.59
2922.94 -159.305 7083.19
3162.95 -385.283 6900.88
3162.9 -301.575 6901.17
3170.87 -251.17 6853.06
3138.1 -171.749 6918.38
3138.1 -171.749 6918.38
3345.61 -297.277 6843.12
4054.51 -8267.33 5328.92
3971.63 -8254.87 5330.86
3971.63 -8254.87 5330.86
4004.75 -8167.31 5328.98
4095.79 -8238.38 5343.63
4061.99 -8182.96 5283.28
3863.16 -8082.68 5252.44
3946.25 -8057.77 5271.25
3896.67 -7995.98 5307.05
3930.03 -7966.79 5303.41
4029.01 -8124.3 5269.87
4029.01 -8124.3 5269.87
4054.44 -7983.49 5329.28
4278.82 -8272.04 5367.49
4104.26 -7871.15 5336.56
4121.19 -7925.54 5358.95
4162.58 -7892.1 5350.86
4295.04 -7891.33 5327.48
3864 -7796.59 5350.52
4087.58 -7820.89 5327.27
3930.45 -7809.44 5367.39
3930.51 -7767.67 5367
3914.24 -7697.41 5399.57
3914.24 -7697.41 5399.57
3872.81 -7589.07 5407.76
3865.92 -7354.06 5560.61
3997.84 -7468.99 5459.99
4196.18 -7759.51 5405.06
4230.03 -7614.68 5465.56
4295.62 -7746.96 5413.21
4337.4 -7801.51 5425.05
4172.81 -7357.45 5547.99
4172.81 -7357.45 5547.99
4337.81 -7581.42 5467.24
4272.03 -7448.52 5512.98
4594.03 -8245.79 5347.06
4370.38 -8272.16 5393.8
4370.38 -8272.16 5393.8
4486.23 -8134.26 5390.64
4386.74 -7900.59 5382.93
4386.74 -7900.59 5382.93
4693.45 -8354.68 5377.46
4693.45 -8354.68 5377.46
4785.53 -8189.01 5445.34
4702.34 -8067.75 5427.14
4703.18 -8027.5 5489.3
4810.37 -8051.37 5449.45
4810.37 -8051.37 5449.45
4819.12 -7902.09 5485.4
4819.12 -7902.09 5485.4
4462.08 -7793.33 5449.29
4395.94 -7643.88 5482.85
4462.02 -7697.36 5449.77
4619.93 -7835.2 5471.28
4503.4 -7697.21 5441.8
4395.6 -7597.41 5440.32
4395.6 -7597.41 5440.32
4371.14 -7560.44 5478.45
4462.19 -7601.44 5448.81
4437.57 -7506.21 5488.04
4380.22 -7603.15 5534.47
4438.33 -7431.75 5550.4
4669.08 -7867.52 5415.4
4653.15 -7760.16 5468.63
4636.3 -7613.94 5460.28
4669.89 -7664.33 5477.86
4802.15 -7801.38 5455.23
4876.75 -7851.22 5459.11
4835.49 -7867.92 5451.86
4843.66 -7759.26 5446.32
4843.66 -7759.26 5446.32
4785.96 -7726.78 5487.67
4802.68 -7664.39 5497.05
4669.84 -7547.42 5478.09
4719.48 -7547.33 5478.68
4661.25 -7472.07 5463.65
4819.12 -7538.9 5485.49
4844.12 -7584.92 5488.42
3990.71 -7283.1 5569.98
4205.98 -7286.49 5545.81
4205.98 -7286.49 5545.81
4123.49 -7203.94 5589.77
4123.49 -7203.94 5589.77
4255.45 -7311.02 5510.76
4347.27 -7295.17 5580.21
4347.27 -7295.17 5580.21
4471.41 -7281.94 5548.69
4579.39 -7340.27 5549.22
4901.84 -8139.12 5461.5
5051.32 -8197.73 5489.99
5100.97 -8139.1 5475.77
5100.97 -8139.1 5475.77
5117.77 -8193.75 5499.27
4951.61 -8109.76 5461.33
4992.57 -7875.57 5433.29
4960.58 -7893.93 5518.54
5026.33 -8126.69 5472.38
5043.66 -8027.77 5537.55
5043.3 -7926.38 5472.08
5043.3 -7926.38 5472.08
5060.26 -7968.86 5524.96
5126.49 -7902.29 5535.26
5209.42 -8209.49 5442.43
5193.21 -8211.2 5543.09
5301.31 -8119.59 5565.08
5301.31 -8119.59 5565.08
5301.34 -8006.95 5564.79
5351.02 -8107.43 5573.1
4927.34 -7867.65 5461.65
4952.34 -7685.38 5524.35
4910.54 -7651.77 5498.03
4910.54 -7651.77 5498.03
4993.68 -7710.32 5516.54
4968.81 -7726.92 5512.63
5042.9 -7867.89 5474.53
5134.21 -7792.95 5487.64
5052.02 -7647.89 5530.93
5118.55 -7647.9 5539.66
5110.28 -7627.08 5545.64
5110.28 -7627.08 5545.64
5051.79 -7581.25 5532.36
5135.22 -7581.34 5549.22
5184.33 -7813.95 5493.29
5292.85 -7639.84 5572.4
5234.23 -7592.97 5514.57
5259.64 -7552.18 5560.36
5326.15 -7481.62 5569.27
5417.64 -8136.43 5581.27
5426.45 -8091.26 5617.1
5492.33 -8077.9 5584.5
5492.33 -8077.9 5584.5
5425.79 -7981.97 5575.74
5433.91 -7927.73 5570.62
5433.91 -7927.73 5570.62
5434.04 -7885.93 5569.84
5442.5 -7711.12 5599.85
4945.12 -7244.7 5613.98
5293.13 -7343.58 5570.56
5226.66 -7068.23 5561.63
4090.73 -7133.8 5634.06
4066.34 -7089.19 5693.89
3859.39 -6977.25 5733.52
4050.07 -7030.83 5711.79
4091.9 -6972.63 5738.23
3975.86 -6981.72 5764.02
4042.23 -6881.42 5759.64
4224.39 -7022 5700.76
4166.69 -6960.79 5785.72
4133.01 -6947.7 5732.09
4240.29 -7054.71 5662.69
4257.48 -7005.5 5713.7
4306.81 -7029.55 5657.18
4332.74 -6910.14 5758.73
4308.41 -6827.62 5818.47
4018.24 -6816.32 5861.71
3853.37 -6651.33 5984.53
3927.83 -6659.18 5953.28
4077.33 -6579.77 5960.92
4168.08 -6720.43 5889.11
4110.31 -6666.8 5929.98
4110.31 -6666.8 5929.98
4275.97 -6691.08 5890.81
4193.92 -6538.11 5991.16
4136.34 -6480.56 6038.63
4186.08 -6480.48 6039.17
4162.23 -6365.03 6140.38
4186.62 -6405.96 6080.49
4252.02 -6525.67 5992.81
4397.66 -7154.21 5628.91
4399.89 -6907.11 5831.41
4663.66 -7070.83 5665.45
4419.12 -6372.1 6071.43
5377.31 -7378.74 5673.51
5484.66 -8224.7 5632.23
5501.39 -8133.37 5641.54
5552.34 -8318.3 5702
5586.09 -8206.4 5756.3
5492.96 -7953.61 5626.01
5560.24 -8109.44 5698.18
5652.38 -8093.55 5751.85
5643.7 -8038.56 5714.87
5635.94 -7914.42 5763.61
5728.15 -8282.56 5816.8
5711.27 -8186.33 5808.46
5745.49 -8221.17 5882.64
5861.62 -8258.48 5877.81
5887.4 -8275.95 5921.69
5836.9 -8183.65 5895.71
5694.8 -8015.46 5820.36
5694.8 -8015.46 5820.36
5761.3 -7907.01 5829.38
5903.86 -7878.35 5878.77
5854 -8092.33 5925.38
5854 -8092.33 5925.38
5870.8 -7966.72 5888.79
5451.51 -7811.96 5634.67
5501.98 -7867.08 5683.29
5535.3 -7633.5 5694.76
5560.56 -7863.09 5696.17
5635.07 -7867.16 5700.56
5659.97 -7775.4 5704.36
5451.65 -7553.14 5633.59
5526.43 -7452.88 5636.28
5484.69 -7382.07 5632.14
5593.61 -7500.09 5709.37
5552.04 -7504.26 5703.86
5552.04 -7504.26 5703.86
5626.86 -7429.04 5706.39
5719.47 -7839.75 5802.84
5777.74 -7656.18 5817.64
5861.01 -7840.22 5836.06
5870.22 -7749.41 5892.43
5904.18 -7645.8 5945.46
5745.49 -7348.57 5883.1
5820.26 -7448.62 5885.63
5820.26 -7448.62 5885.63
5895.97 -7441.36 5951.29
5079.98 -6825.83 5778.85
5409.85 -7085.87 5629.93
5170.9 -6871.14 5749.51
5245.59 -6846.12 5752.98
5245.59 -6846.12 5752.98
5302.63 -6940.57 5670.14
5302.63 -6940.57 5670.14
5328.03 -6887.16 5716.37
5386.25 -6895.79 5731.52
5345.3 -6820.93 5759.51
4964.73 -6631.03 5853.77
5148.22 -6673.76 5935.59
4948.75 -6523.41 5907.55
5229.53 -6796.8 5792.94
5280.17 -6705.78 5855.3
5280.17 -6705.78 5855.3
5280.26 -6597.18 5854.77
5395.42 -6787.52 5765.17
5290.49 -6461.75 6009.95
5355.41 -6556.11 5900.88
5477.06 -7307.87 5679.75
5544.48 -7179.54 5751.27
5544.48 -7179.54 5751.27
5619.2 -7225.31 5754.32
5619.74 -7084.17 5796.54
5435.65 -6999.06 5687.97
5536.02 -6970.57 5735.81
5536.02 -6970.57 5735.81
5427.41 -6920.02 5693.98
5428.13 -6870.63 5734.91
5537.42 -6851.25 5840.79
5594.14 -6991.58 5751.51
5712.13 -7214.83 5871.58
5912.45 -7215.65 5939.32
5829.35 -7144.78 5943.05
5696 -6872.94 5904.22
5771.62 -6899 5970.49
5871.98 -6891.39 6018.83
5856.24 -6842.42 6071.85
5445.94 -6734.28 5828.31
5454.52 -6647.37 5865.84
5454.48 -6688.61 5866.06
5496.5 -6689.49 5891.45
5438.76 -6589.69 5918.62
5548.61 -6578.79 6036.18
5430.76 -6515.34 5968.52
5515.52 -6466.68 6068.86
5781.43 -6758.56 6069
5807.11 -6667.68 6128.4
5674.53 -6605.65 6153
5575.33 -6305.44 6188.35
5891.77 -6690.07 6230
5891.77 -6690.07 6230
5908.45 -6615.06 6239.81
5883.5 -6560.63 6235.99
5716.7 -6422.45 6200.5
5725.87 -6356.46 6257.34
5725.87 -6356.46 6257.34
5909.68 -6390.72 6323.85
3873.99 -6093.25 6385.35
4023.22 -6013.24 6358.47
4312.88 -4925.39 7030.9
4256.71 -4785.18 7218.69
4351.09 -4226.56 7486.02
4529.39 -4899.81 7025.36
4547.15 -4842.45 7119.03
4646.19 -4874.98 7041.44
4779.61 -4816.23 7059.83
4779.61 -4816.23 7059.83
4829.57 -4799.67 7067.52
4640.51 -4689.16 7280.1
4691.15 -4580.85 7343.64
4633.89 -4585.94 7426.09
4881.85 -4571.29 7257.08
4840.88 -4588.62 7306.9
4858.09 -4471.88 7359.05
4791.31 -4429.97 7349.99
4881.88 -4290.61 7256.91
4817.02 -4216.86 7409.45
5266.71 -6279.45 6097.98
5342.21 -6204.75 6142.21
5109.98 -6188.85 6173.1
5061.59 -5923.29 6300.22
5325.63 -6213.37 6154.56
5301.34 -6109.47 6192.29
5293.44 -6039.17 6241.42
5351.46 -6130.54 6212.81
5351.96 -6051.88 6255.28
5153.42 -5927.64 6325.94
5153.42 -5927.64 6325.94
5295.39 -5777.98 6388.44
5534.53 -6251.91 6238.02
5483.76 -6171.74 6176.02
5534.42 -6189.1 6238.8
5592.82 -6214.54 6253.33
5642.13 -6288.78 6195.92
5653.02 -5994.86 6393.6
5545.25 -5886.85 6422.21
5692.53 -6289.69 6260.44
5759.26 -6289.71 6268.48
5802.79 -6116.13 6407.49
5826.3 -6290.28 6305.77
5885.61 -6241.17 6383.36
5720.3 -6066.85 6452.44
5794.52 -6057.77 6413.59
5845.39 -6104.59 6475.72
5490.95 -5359.77 6716.22
4937.37 -4794.84 7025.99
5079.36 -4732.29 7059.1
5020.87 -4736.37 7044.4
5380.01 -4351.66 7135.62
5330.12 -4293.1 7135.59
5322.51 -4218.19 7183.14
5396.2 -4276.03 7102.98
4924.37 -4496.64 7325.7
4924.36 -4446.27 7325.77
4991.25 -4421.19 7334.04
5007.14 -4253 7280.76
5652.22 -4985.63 6940.02
5485.49 -4926.99 6924.9
5585.44 -4973.13 6931.64
5428.22 -4798.11 6994.19
5428.22 -4798.11 6994.19
5545.02 -4739.65 7009.93
5619.44 -4864.7 6970.55
5685.52 -5077.6 6937.45
5802.9 -5049.01 6995.42
5694.64 -4881.67 6995.02
5812.17 -4857.23 7066.71
5621.52 -4619.46 7132.69
5438.39 -4343.37 7136.38
5529.62 -4435.04 7106.48
5612.32 -4371.57 7061.17
5679.37 -4673.35 7090.8
5686.93 -4471.85 7043.4
5739.02 -4553 7190.17
5846.08 -4715.3 7106.34
5879.46 -4627.43 7118.06
5921.08 -4597.96 7109.15
5814.05 -4544.55 7192.87
5871.09 -4468.26 7110.09
5888.78 -4510.91 7174.45
5693.81 -4299.03 6931.38
5720.98 -4447.28 7096.73
5685.57 -4223.73 6937.18
5845.49 -4409.1 7064.13
5988.03 -8173.03 6005.92
6063.8 -7986.28 6071.64
6297.43 -8200.22 6136.76
6297.43 -8200.22 6136.76
6454.64 -8207.73 6102.58
6222.52 -8058.34 6134.66
6338.21 -8107.15 6086.46
6338.21 -8107.15 6086.46
5962.39 -7808.73 5946.36
6180.66 -7611.28 6131.1
5979.93 -7538.33 6011.02
5962.13 -7462.21 5948.07
5962.13 -7462.21 5948.07
6079.73 -7600.98 6017.2
6079.73 -7600.98 6017.2
6080.29 -7568.33 6059.57
6138.65 -7597.77 6074.22
6171.64 -7530.89 6073.03
6205.97 -7836.64 6124.08
6205.97 -7836.64 6124.08
6271.77 -7831.48 6076.96
6271.77 -7831.48 6076.96
6230.1 -7610.34 6086.85
6214.41 -7665.64 6139.72
6346.71 -7652.28 6101.94
6205.08 -7539.26 6069.18
6296.89 -7577 6094.12
6246.44 -7397.11 6075.87
6246.44 -7397.11 6075.87
6395.86 -7475.81 6059.25
6386.77 -7404.18 6010.02
6055.29 -7288.46 6056.35
6063.78 -7263.68 6071.75
5965.24 -6910.13 6149.54
6395.2 -7232.93 6017.26
6421.49 -7151.02 6104.95
6462.31 -7079.21 6054.12
6454.71 -6971.33 6102.26
6290.85 -6969.67 6247.83
6016.7 -6727.9 6253.54
6101.32 -6712.73 6355.67
6002 -6550.42 6392.09
6052.05 -6546.3 6398.6
6102.28 -6550.78 6418.76
6266.92 -6695.28 6329.94
6308.88 -6737.3 6341.46
6292.81 -6583.23 6373.96
6358.79 -6653.6 6340.39
6403.07 -6413.79 6513.69
6528.27 -7128.54 6020.35
6486.96 -7128.62 6027.98
6544.99 -7045.02 6029.88
6512.34 -6903.88 6075.15
6579.65 -6892.16 6125.47
6652.32 -7027.67 6002.53
6603.34 -6961.57 6044.36
6612.86 -6825.25 6122.97
6759.69 -6964.18 5959.95
6810.47 -6743.66 6008.07
6761.48 -6677.81 6064.74
6762.74 -6558.18 6149.69
6819.91 -6652.82 6078.7
6909.57 -6788.99 5986.46
6876.9 -6752.03 6017.44
6680.53 -6558.94 6194.2
6515.46 -6556.04 6263.61
6829.48 -6562.28 6157.3
7342.42 -8275.83 6041.09
7418.41 -8335.41 6106.11
7090.92 -6762.43 5904.81
7109.15 -6805.7 5997.83
7017.54 -6646.94 5986.46
7067.61 -6605.35 5992.51
7125.12 -6587.98 5965.59
7159.36 -6618 6017.5
7126.03 -6463.42 6006.19
7241.31 -6508.46 5959.38
7176.81 -6359.94 6069.34
7298.97 -6499.57 5931.5
7298.21 -6519.8 5889.5
7267.7 -6396.93 6038.57
7408.07 -6371.05 5994.22
5944.5 -6208.56 6440.83
6087.66 -6289.53 6557.1
6079.39 -6084.65 6563.09
6205.08 -6281.86 6614.15
6485.29 -6161.97 6455.17
6485.29 -6161.97 6455.17
6684.57 -5684.83 6438.22
5991.22 -5602.65 6782.21
6160.29 -5324.33 6957.98
6311.04 -5329.14 7013.18
6352.98 -5295.97 7039.96
6594.19 -5320.41 7014.04
6560.55 -5353.88 7004.21
6669.45 -5303.9 7038.07
6954.66 -4199.01 6668.81
6079 -5079.13 7087.69
6162.55 -5058.35 7105.7
6154.3 -5079.32 7111.57
6154.3 -5079.32 7111.57
6011.74 -4898.55 7036.12
6046.33 -4765.62 7132.42
6254.34 -5146.34 7117.66
6221.63 -5067.31 7162.9
6238.52 -4786.84 7171.71
6313.52 -4774.24 7174.38
6363.54 -4740.8 7181.73
6463 -4790.55 7145.14
6463 -4790.55 7145.14
6421.05 -4748.52 7132.95
6230.89 -4975.85 7219.86
5946.75 -4539.86 7154.72
5946.75 -4539.86 7154.72
6063.21 -4485.15 7141.28
6087.5 -4698.26 7103.3
6163.24 -4715.59 7147.58
6121.47 -4568.87 7142.84
5967.75 -4243.91 6884.23
6017.68 -4264.71 6883.42
6027.46 -4332.73 6983.14
5963.09 -4451.68 7135.51
6020.48 -4425.81 7073.3
6263.05 -4669.36 7155.26
6246.76 -4602.48 7165.85
6321.79 -4690.37 7168.24
6396.11 -4714.91 7128.81
6404.63 -4493.18 7144.44
6249.59 -4213.52 6809.33
6487.91 -4941.18 7140.78
6612.29 -4748.13 7108.21
6612.29 -4748.13 7108.21
6679.02 -4731.37 7116.85
6679.02 -4731.37 7116.85
6946.23 -4949.28 7158.17
6921.28 -4848.55 7154.11
6862.02 -4756.04 7097.67
6971.29 -4840.44 7161.47
6971.29 -4840.44 7161.47
6929.42 -4790.05 7148.8
6929.42 -4790.05 7148.8
6529.71 -4631.34 7153.99
6562.43 -4509.52 7123.2
6719.88 -4605.1 7066.04
6595.8 -4530.54 7120.12
6595.8 -4530.54 7120.12
6686.57 -4462.79 7068.73
6686.57 -4462.79 7068.73
6591.52 -4268.18 6853.74
6591.52 -4268.18 6853.74
6632.51 -4221.69 6816.65
6761.89 -4647.16 7092.41
6752.6 -4558.48 7035.17
6803.43 -4534.08 7083.95
6878.74 -4672.58 7107.67
6878.74 -4609.66 7107.77
6945.5 -4630.53 7115.94
6861.91 -4517.48 7098.51
6856.71 -4246.24 6790.15
6758.48 -4259.96 6889.68
6965.53 -4263.28 6824.08
7096.76 -6095.36 6240.68
7220.35 -6227.93 6178.79
7461.49 -5402.48 6642.39
7565.47 -6253.59 5971.76
6996.52 -4773.49 7178.37
7227.31 -4746.64 7039.7
7179.77 -4848.77 7180.86
7094.79 -4713.58 7078.38
7044.83 -4504.39 7079.53
7099.44 -4347.32 6869.84
7099.44 -4347.32 6869.84
7072.98 -4258.54 6781.84
4131.73 -2278.84 5584.2
4670.71 -2374.52 5562.9
4670.71 -2374.52 5562.9
4704.08 -2432.91 5573.9
4795.5 -2370.35 5586.59
4728.53 -2307.48 5535.52
4728.53 -2307.48 5535.52
4736.75 -2340.83 5529.75
4794.96 -2307.52 5544.94
4976.07 -2269.18 5423.1
5017.88 -2231.92 5457.38
5060.43 -2236.35 5524.34
5209.36 -2373.83 5511.02
5366.54 -2244.28 5476.97
5324.68 -2194.08 5465.5
5382.5 -2106.38 5437.5
5415.64 -2356.63 5435.32
5473.98 -2331.65 5449.45
5664.35 -2206.36 5426.94
5788.95 -2281.37 5436.6
5873.43 -2219.36 5552.55
4741.57 -3426.69 6655.38
4741.57 -3426.69 6655.38
4700.16 -3267.82 6662.92
3956.09 -3774.95 7141.25
3931.46 -3720.76 7179.93
3931.46 -3720.76 7179.93
4229.08 -3676.78 6969.42
4248 -3812.77 7182.45
3899.6 -3990.26 7330
4234.21 -4066.98 7469.6
4234.21 -4066.98 7469.6
4318.36 -4075.79 7529.69
4115.32 -3922.37 7248.73
3912.31 -3174.12 6924.54
3854.97 -3288.04 7028.99
4194.94 -3487.86 6917.43
4294.86 -3504.43 6894.52
4294.86 -3504.43 6894.52
4187.5 -3580.47 6963.06
4187.5 -3580.47 6963.06
4647.56 -3762.04 7191.31
4518 -4083.82 7502.07
4557.55 -3847.39 7303.22
4499.39 -3688.1 7323.24
4635.49 -4029.95 7574.84
4822.86 -3804.06 7199.83
4377.5 -3487.23 6836.04
4377.5 -3487.23 6836.04
4452.21 -3453.47 6818.37
4518.95 -3537.14 6827.18
4593.47 -3273.2 6788.07
4769.42 -3629.78 6904.69
4658.83 -3226.05 6677.81
4634.08 -3251.34 6695.37
4480.13 -2763.63 6331.74
4012.28 -3107.11 6931.79
4012.28 -3107.11 6931.79
4210.43 -2871.44 6777.57
5323.69 -3161.94 6007.81
5349.75 -3166.87 6095.49
5408.16 -3196.12 6109.74
4907.07 -3430.25 6587.43
4973.79 -3476.36 6596.05
4970.79 -3252.73 6350.98
4979.15 -3173.2 6358.96
5046.11 -3290.52 6396.53
5144.31 -3210.2 6277.44
5069.97 -3202.02 6308.46
5370.27 -3415.67 6391.63
5380.09 -3483.67 6504.44
5405.09 -3525.34 6507.89
5195.54 -3348.88 6382.05
5178.79 -3290.16 6372.65
5178.79 -3290.16 6372.65
5268.01 -3217.76 6195.54
5218.11 -3163.44 6196.2
5237.7 -3374.32 6429.63
5649.05 -3158.31 6107.19
5707.27 -3158.36 6122.65
5436.33 -3436.3 6358.47
5437.01 -3457.71 6422.55
5503.82 -3457.69 6430.34
5636.93 -3524.65 6434.31
5443.57 -3314.17 6267.7
5542.9 -3313.86 6277.27
5542.9 -3313.86 6277.27
5501.72 -3335.28 6283.84
5476.12 -3272.13 6223.98
5584.09 -3288.84 6225.1
5634.3 -3322.37 6245.16
5575.29 -3229.96 6188.8
5694.8 -3499.31 6406.6
5702.26 -3456.94 6359.83
5770.15 -3549.64 6452.29
5837.27 -3566.61 6480.99
5710 -3406.52 6311.26
4987.71 -3760.69 7046.02
5197.42 -4096.68 7173.13
5280.08 -4104.58 7128.37
5280.07 -4037.56 7128.49
5230.65 -3987.74 7171.14
5288.67 -4167.45 7143.25
5403.93 -4028.48 7054.7
5403.93 -4028.48 7054.7
5321.06 -3995.2 7078.05
5321.06 -3995.2 7078.05
5234.02 -3690.94 6770.98
5270.35 -3919.29 7014.82
5181.38 -4009.3 7227.57
5050.06 -3552.44 6704.1
5036.36 -3613.23 6948.23
5275.76 -3661.66 6775.95
5325 -3657.08 6742.28
5577.87 -3993.94 6979
5700.79 -3992.55 6841.74
5859.27 -4189.25 6862.43
5865.67 -3861.61 6730.16
5874.48 -3928.86 6766.68
5405.03 -2914.51 5879.21
5266.7 -3091.68 6098.24
5266.7 -3091.68 6098.24
5233.33 -3032.94 6078.87
5208.52 -2991.34 6097.05
5390.26 -3074.16 6016.77
5390.26 -3074.16 6016.77
5330.78 -2923.19 5918.26
5328.91 -2822.02 5771.15
5165.09 -2714.73 5944.31
5020.7 -3131.35 6350.34
5367.21 -3142.15 6160.31
5245.57 -2567.21 5753.4
5528.29 -2922.11 5784.26
5538.01 -2947.86 5883.04
5538.01 -2947.86 5883.04
5587.25 -2931.01 5863.27
5456.65 -3099.33 6026.69
5514.43 -3002.99 5984.68
5571.83 -2990.03 5936.84
5621.64 -2998.5 5944.55
5637.73 -2972.92 5889.57
5621.1 -2918.76 5902.36
5444.49 -2800.74 5724.15
5429.12 -2805.55 5819.96
5678.6 -2914.22 5853.71
5762.05 -2939.32 5870.8
5715.02 -3066.11 6074.13
5844.6 -2880.6 5847.7
5844.6 -2880.6 5847.7
5885.53 -2855.22 5796.69
5927.62 -2826.26 5844.47
5925.26 -2466.29 5684.57
3999.32 -1907.57 5621.26
4596.18 -2036.5 5572.94
4479.64 -1502.4 5543.32
4710.13 -1368.18 5379.61
4710.13 -1368.18 5379.61
4644.84 -1259.95 5475.4
4505.24 -563.413 5602.16
4563.47 -609.393 5602.63
4760.94 -830.252 5470.55
4760.94 -830.252 5470.55
4695.86 -667.689 5579.65
4637.92 -550.762 5607.7
4637.92 -550.762 5607.7
4844.18 -592.404 5488.57
4522.42 -492.916 5608.55
4605.03 -404.655 5608.21
4729.11 -396.382 5576.9
4745.47 -292.121 5565.96
4795.35 -434.003 5587.57
4787.24 -363.034 5592.57
4877.44 -325.384 5500.21
4679.12 -200.308 5570.6
4679.12 -200.308 5570.6
4820.47 -258.722 5589.94
4762.41 -166.836 5588.42
4870.38 -217.012 5611.42
5042.76 -2043.91 5475.77
5051.56 -2081.72 5488.95
5025.92 -1885.5 5430.16
4943.21 -1639.47 5454.04
5142.84 -1702.13 5502.36
5234.23 -2023.21 5447.01
5217.69 -2069.37 5504.56
5191.87 -1919.03 5446.76
5191.87 -1919.03 5446.76
5374.14 -1993.76 5429.67
5191.97 -1797.87 5446.17
5241.9 -1785.43 5467.31
5225.28 -1693.57 5457.37
5407.54 -1580.96 5440.41
4960.11 -1380.84 5476.73
5108.76 -1543.42 5428.04
5150.6 -1255.61 5454.18
5233.44 -1555.97 5452.04
5282.79 -1351.43 5416.96
5282.79 -1351.43 5416.96
5291.05 -1509.88 5410.9
5365.66 -1480.7 5414.52
5365.66 -1480.7 5414.52
5307.62 -1438.94 5412.99
5225.21 -1259.79 5457.89
5466.05 -2060.55 5453.49
5423.9 -2002.09 5429.21
5489.91 -2001.85 5395.61
5548.66 -2093.94 5452.58
5498.89 -1676.74 5453.12
5515.39 -1614.23 5441.1
5655.8 -1734.97 5412.09
5796.59 -2064.27 5388.78
5457.07 -1547.41 5426.83
5457.07 -1547.41 5426.83
5522.96 -1484.7 5393.91
5630.08 -1305.23 5353.52
5415.15 -1242.85 5393.05
5489.8 -1259.5 5396.29
5531.17 -1309.57 5388.17
5755.71 -1276.2 5439.59
5755.71 -1276.2 5439.59
5721.56 -1134.29 5365.22
5862.99 -1059.28 5397.95
5009.66 -926.123 5463.2
5059.22 -1042.88 5441.6
4952.35 -671.749 5524.7
4985.54 -550.736 5522.31
5100.56 -646.593 5433.69
5183.73 -1026.22 5452.04
5258.46 -1017.8 5454.96
5299.32 -1026.03 5419.4
5316.1 -959.428 5428.22
5365.67 -942.667 5414.47
5374.19 -696.569 5429.43
5398.96 -621.535 5425.86
4936.01 -488.285 5558.2
4902.94 -438.071 5545.33
4993.76 -296.28 5516.48
5084.48 -429.695 5488.22
5084.48 -429.695 5488.22
5068.41 -304.531 5520.02
5117.77 -300.472 5499.68
4943.87 -150.173 5509.58
5126.17 -16.6358 5492.78
5175.22 -504.82 5437.1
5184.26 -438.083 5494.05
5332.5 -379.607 5416.88
5341.56 -283.663 5473.77
5233.5 -158.529 5451.71
5299.9 -246.099 5461.03
5291.73 -141.823 5466.54
5291.73 -141.823 5466.54
5456.42 -975.858 5385.48
5506.77 -992.874 5404.02
5489.78 -792.404 5396.39
5556.22 -925.762 5405.46
5655.88 -1026.04 5411.64
5573.22 -796.625 5412.98
5473.39 -663.167 5407.78
5589.53 -667.343 5402.05
5622.54 -546.357 5400.6
5713.36 -788.148 5370.97
5713.36 -788.148 5370.97
5821.68 -992.552 5405.82
5870.6 -621.28 5350.25
5680.28 -738.074 5372.91
5680.28 -738.074 5372.91
5498.36 -488.002 5388.34
5498.47 -438.117 5455.75
5597.96 -296.147 5417.69
5622.58 -262.683 5354.84
5497.9 -116.787 5391.22
5482.14 -50.0712 5444.05
5655.93 -145.948 5411.35
5564.76 -116.817 5420.32
5597.97 -41.7093 5417.57
5597.97 -41.7093 5417.57
5689.31 -517.194 5430.31
5838.14 -304.432 5393.97
5912.11 -262.653 5355.62
5697.57 -112.588 5424.18
5804.81 -58.4185 5382.92
5863.02 -108.431 5397.77
4020.35 -1888.73 6064.01
4049.63 -1811.83 5670.29
4074.26 -1673.92 5645.81
4207.54 -1093.79 5692.6
3968.46 -814.444 5853.91
4033.96 -906.153 5765.93
4010.51 -747.73 5909
4314.97 -868.244 5652.19
4201.38 -142.043 5901.08
3841.5 -434.997 6479.81
3867.04 -309.61 6539.21
3989.36 -133.685 6297.84
3989.36 -133.685 6297.84
4406.61 -626.154 5678.28
4447.71 -547.133 5694.58
4464.68 -455.056 5679.92
4464.96 -333.826 5722.96
4588.95 -338.125 5662.31
4588.95 -338.125 5662.31
4588.92 -246.274 5662.48
4588.92 -246.274 5662.48
4539.66 -29.2366 5704.22
4563.9 -58.3448 5644.85
5973.78 -2561.7 5600.27
5973.78 -2561.7 5600.27
6057.26 -2540.99 5616.79
6090.24 -2507.49 5615.54
6089.61 -2457.27 5573.67
6196.95 -2415.31 5531.49
6103.66 -2185.17 5393.62
6103.66 -2185.17 5393.62
6264.03 -2486.57 5605.38
6214.33 -2478.17 5597.21
6279.8 -2461.13 5551.88
6321.53 -2482.02 5555.86
6272.38 -2469.83 5598.65
6380.29 -2540.82 5613.39
6338.79 -2553.21 5607.86
6337.37 -2377.46 5524.83
6370.74 -2423.36 5521.03
6328.21 -2256.15 5467.65
6230.19 -2344.35 5543.11
6295.8 -2348.21 5496.8
6286.02 -2101.7 5397.72
6344.9 -2235.3 5454.24
6452.1 -2168.43 5435.52
6452.23 -2101.67 5434.69
6562.89 -2569.74 5593.22
6562.74 -2548.69 5594.16
6678.57 -2477.69 5566.92
6587.21 -2327.51 5554.38
6870.09 -2527.49 5582.21
6918.68 -2427.37 5542.33
6952.45 -2481.96 5582.44
6751.7 -2126.9 5463.85
7127.22 -2627.91 5611.51
7027.62 -2507.13 5605.25
7001.89 -2544.28 5560.24
7001.89 -2544.28 5560.24
6993.36 -2439.95 5545.04
7141.45 -2339.33 5473.92
7249.56 -2322.58 5486.65
7506.35 -2364.11 5470.55
7422.43 -2163.68 5410.72
7533.49 -2556.67 5577.03
7583.04 -2560.79 5577.22
7631.64 -2484.69 5475.08
7613.66 -2297.21 5450.27
7613.66 -2297.21 5450.27
7596.24 -2126.06 5398.41
6151.91 -3682.86 6405.18
5972.57 -3839.84 6646.65
5994.39 -3674.82 6440.31
5963.41 -3780.9 6589.39
6086.07 -3699.97 6452.18
6254.94 -4073.61 6613.75
6451.51 -4004.44 6414.98
6205.94 -3296.02 6124.71
6213.42 -3232.9 6077.53
6453.27 -3161.29 6019.36
5943.64 -3553.21 6377.49
6100.04 -3568.82 6272.02
6117.92 -3582.26 6366.35
6200.41 -3623.44 6320.95
6133.21 -3501.91 6269.79
6016.63 -3359.69 6254.12
5950.73 -3405.91 6287.02
6234.69 -3653.29 6380.94
6250.45 -3565.01 6327.47
6207.28 -3422.03 6231.46
6274.07 -3413.79 6238.92
6249.97 -3489.39 6284.41
6384.41 -3611.4 6386.32
6384.41 -3611.4 6386.32
6423.04 -3438.38 6210.97
6405.7 -3321.22 6159.06
6477.71 -3959.46 6503.51
6686.99 -4026.9 6585.95
6583.75 -3673.87 6377.85
6494.4 -3913.27 6504.9
6544.41 -3888.31 6511.83
6593.62 -3779.06 6468.73
6551.5 -3778.65 6420.35
6551.5 -3778.65 6420.35
6824.62 -3694.5 6351.3
6824.62 -3694.5 6351.3
6967.04 -3778.43 6426.24
6967.04 -3778.43 6426.24
6563.26 -3308.27 6137.15
6563.26 -3308.27 6137.15
6536.15 -3194.57 6016.98
6463.47 -3274.91 6131.07
6495.13 -3177.97 6022.89
6828 -3270.07 6074
6912.2 -3341.38 6132.78
6928.5 -3295.48 6121.89
6902.89 -3253.26 6075.94
6944.64 -3182.37 6088.71
6944.64 -3182.37 6088.71
6699.63 -3556.43 6342.91
6707.03 -3489.19 6295.79
6665.46 -3505.9 6290.4
6742.07 -3657.22 6397.9
6832.67 -3640.03 6346.56
6821.88 -3434.01 6205.93
6957.81 -3619.14 6368.62
6090.49 -4158.66 6746.7
6073.74 -4079.13 6737.18
6199.88 -4171.92 6823.38
6364.06 -4090.88 6677.25
6364.06 -4090.88 6677.25
6497.7 -4137.12 6715.76
6572.68 -4162.07 6718
6622.76 -4137.25 6739.21
6663.73 -4094.76 6687.56
6706.03 -4099.43 6735.2
6807.8 -4184.1 6845.93
6807.8 -4184.1 6845.93
5977.63 -2897.42 5851
5961.7 -2951.97 5905.26
6162 -3048.36 5973.27
6079 -3006.63 5976.18
5942.83 -2809.01 5749.08
5959.52 -2829.85 5758.56
5959.52 -2829.85 5758.56
5976.82 -2813.39 5810.18
6026.66 -2830.04 5809.31
6041.27 -2662.21 5671.48
6058.99 -2696.33 5766.36
6135.02 -2880.44 5830
6100.88 -2771.44 5769.59
6192.35 -2821.54 5781.8
6417.9 -2947.27 5874.05
6453.34 -3144.58 6018.95
6443.5 -3064.54 5919.71
6224.85 -2771.21 5737.66
6325.46 -2796.47 5807.22
6224.28 -2645.66 5695.3
6224.28 -2645.66 5695.3
6397.94 -2641.22 5663.01
6725.13 -2913.65 5864.35
6519.9 -3127.89 6027.59
6589.35 -2624.59 5679.53
6640.18 -2812.59 5741.35
6664.85 -2770.95 5746.58
6917.12 -3035.1 5938.57
6840.36 -2884.02 5818.01
6822.25 -2712.31 5724.56
6937.54 -2678.58 5677.54
6937.54 -2678.58 5677.54
6513.64 -2544.83 5636.86
6771.3 -2582.62 5663.38
6936.95 -2586.57 5634.8
6986.89 -2590.61 5656.1
7169.58 -4034.94 6598.37
7016.08 -3694.68 6383.79
7016.08 -3694.68 6383.79
7132.73 -3853.28 6398.85
7183.01 -3677.76 6418.58
7448.64 -3752.75 6396.15
7085.92 -3228.09 6100.23
7225.6 -3160.63 6013.85
7327.6 -3311.97 6137.04
7327.6 -3311.97 6137.04
7268.44 -3219.75 6080.96
7301.58 -3236.32 6078.83
7301.58 -3236.32 6078.83
7334.22 -3190.1 6047.52
7402.49 -3303.52 6138.79
7402.49 -3303.52 6138.79
7510.28 -3303.48 6093.08
7457.85 -3177.17 5993.56
7392.46 -3152.52 6048.06
7032.32 -3547.83 6349.94
7180.95 -3605.89 6300.28
7213.01 -3333.58 6226.24
7511.57 -3454.39 6202.13
7286.69 -3232.93 6174.48
7013.84 -4186.88 6725.16
7021.29 -4136.2 6677.49
7125.89 -3089.82 6007.72
7216.82 -3089.45 5976.7
7379.74 -2967.14 5801.91
7379.74 -2967.14 5801.91
7430.28 -2992.42 5851.65
7471.9 -2929.72 5856.32
7471.9 -2929.72 5856.32
7348.05 -3067.7 5888.52
7365.56 -3076.47 5939.86
7300.89 -3123.26 6036.44
7350.71 -3072.97 6035.35
7367.45 -3081.53 6044.86
7382.37 -3085 5948.91
7382.37 -3085 5948.91
7529.45 -2887.88 5828.66
7522.17 -2946.46 5875.58
6012.03 -2034.94 5382.86
6071.03 -2076.89 5438.51
5987.16 -1651.27 5379.03
6410.66 -2076.64 5421.31
6459.91 -2026.47 5386.14
6459.91 -2026.47 5386.14
6435.58 -1972.37 5424.85
6393.38 -1909.65 5377.94
6367.83 -1125.6 5332.44
6509.75 -2067.87 5384.75
6848.92 -2017.73 5346.04
6799.99 -2038.76 5388.2
6899.53 -1984.64 5394.67
6731.69 -1700.76 5275.71
6940.35 -1805.16 5357.8
6948.55 -1684.16 5351.96
6963.51 -1604.64 5256.61
6766.44 -1834.44 5370.09
6632.16 -1333.82 5269.3
6516.5 -1238.1 5295.94
6500.77 -1167.35 5349.46
6509.03 -1108.94 5343.22
6699.29 -1208.95 5319.75
6823.18 -1337.99 5286.99
6872.04 -1371.29 5245.33
6947.14 -1429.59 5268.17
6947.14 -1429.59 5268.17
6922.51 -1354.7 5294.63
6773.27 -1204.62 5280.44
6856.49 -1087.91 5297.9
6880.23 -1225.34 5239.47
6939.68 -1196.36 5315.67
6980.26 -1083.72 5265.79
6938.78 -1050.42 5251.88
6069.13 -992.325 5321.47
6160.77 -800.483 5346.56
5995.29 -850.632 5373.66
6119.8 -1017.46 5383.7
6020.22 -683.868 5377.2
6376.08 -867.152 5326.26
6434.33 -842.302 5340.74
6417.63 -787.971 5331.27
6317.84 -762.955 5311.72
6210.65 -596.273 5353.41
6351.16 -608.637 5322.72
6351.16 -608.637 5322.72
6152.37 -471.086 5339.1
5953.88 -483.683 5367.69
5953.88 -483.683 5367.69
5978.44 -229.286 5350.65
5954.49 -154.348 5409.62
6366.21 -266.828 5227.72
6450.07 -295.98 5287.25
6450.07 -295.98 5287.25
6483.16 -1042.11 5285.14
6467.41 -959.004 5338.71
6574.55 -974.415 5297.03
6550.34 -933.836 5335.14
6533.24 -942.132 5305.15
6499.96 -892.085 5293.9
6599.7 -925.452 5313.67
6700.01 -908.885 5361.42
6566.29 -704.85 5303.25
6673.46 -562.718 5261.28
6673.46 -562.718 5261.28
6813.77 -887.753 5231.12
6782.58 -850.458 5290.68
6889.71 -1017.13 5294.92
6888.83 -821.107 5254.23
6922.02 -850.203 5251.36
6980.2 -800.391 5266.14
6980.2 -800.391 5266.14
6848.28 -658.632 5303.91
6805.68 -566.809 5236.25
6938.53 -570.852 5253.49
6549.64 -496.086 5293.5
6698.53 -16.8186 5278.41
6922.97 -487.631 5291.7
6955.35 -412.784 5262.21
6763.04 -233.382 5169.04
6829.83 -258.431 5198.39
6772.51 -125.118 5239
6864.07 -137.558 5249.73
6863.84 -83.3357 5251.16
6921.92 -129.217 5252.04
7032.57 -2042.96 5410.84
6997.19 -1754.84 5297.01
7105.02 -1621.35 5288.07
7146.31 -1625.51 5279.92
7155.64 -1575.7 5336.64
7494.43 -1758.69 5275.3
7005.83 -1296.34 5311.54
7037.45 -1075.25 5217.16
7154.51 -1179.56 5227.52
7195.48 -1145.93 5235.92
7203.87 -1125.24 5252.14
7319 -1133.42 5204.89
7253.28 -1129.46 5238.57
7278.29 -1166.82 5255.98
7369.72 -1062.61 5267.39
7453.16 -1283.64 5283.34
7402.34 -1145.97 5221.44
7527.78 -1250.27 5285.86
7674.37 -1108.11 5152.79
7308.13 -941.508 5064.76
7021.95 -996.1 5269.59
7013.43 -933.725 5263.05
7014.46 -875.353 5317.47
7021.61 -825.128 5271.82
7021.61 -825.128 5271.82
7088.08 -875.27 5265.56
7161.93 -983.598 5226.62
7120.72 -862.695 5234.33
7138.12 -916.995 5285.84
7138.12 -916.995 5285.84
7236.39 -857.827 5253.51
7195.5 -850.251 5235.85
7029.73 -679.478 5266.43
7112.45 -766.922 5240.6
6996.85 -595.846 5252.79
7063.14 -591.831 5262.22
7063.14 -591.831 5262.22
7146.22 -687.515 5280.53
7236.77 -716.173 5251.11
7160.48 -649.86 5142.87
7170.49 -587.544 5241.67
7285.92 -950.162 5207.14
7335.68 -1041.68 5214.54
7344.64 -966.866 5250.43
7294.3 -825.096 5200.09
7278.47 -866.821 5254.82
7286.48 -899.551 5250.14
7361.8 -866.897 5271.58
7468.63 -958.441 5230.79
7410.32 -900.002 5216.93
7410.32 -900.002 5216.93
7343.25 -683.378 5166.03
7435.4 -649.959 5219.34
7501.88 -583.373 5227.43
7037.54 -504.222 5216.64
7112.5 -437.843 5240.31
6995.78 -362.573 5213.16
7046.02 -316.731 5232.13
7163.86 -491.857 5330.61
7128.1 -383.567 5187.09
7178.42 -329.114 5237.47
7228.49 -358.424 5234.22
7095.49 -216.694 5218.23
7144.43 -133.269 5175.75
7178.64 -158.36 5236.11
7186.94 -66.5872 5229.49
7186.94 -66.5872 5229.49
7120.63 -24.8613 5234.86
7244.92 -83.7349 5245.44
7335.79 -462.357 5213.88
7335.79 -462.357 5213.88
7252.58 -266.688 5196.44
7468.03 -487.55 5187.85
7468.83 -395.872 5229.48
7468.83 -395.872 5229.48
7384.98 -345.53 5169.52
7410.48 -304.249 5215.94
7269.43 -208.35 5205.03
7344.91 -200.052 5248.72
7334.61 -91.6966 5151.41
7344.79 -8.37477 5249.44
7434.95 -236.8 5152.22
7434.55 -50.0092 5178.13
7584.64 -545.531 5200.88
7576.57 -508.325 5229.46
7542.66 -454.09 5190.23
7517.38 -420.676 5174.53
7550.97 -354.422 5183.53
7550.97 -354.422 5183.53
7542.59 -312.57 5190.66
7634.03 -295.85 5201.8
7634.03 -295.85 5201.8
7551 -153.819 5183.36
7592.57 -145.851 5196.65
7592.57 -145.851 5196.65
1869.44 -4317.73 7983.75
1886.22 -4267.55 8007.81
2211.33 -4216.26 7951.32
2302.24 -4243.7 7773.5
2652.33 -4289.28 7734.05
-216.807 -3838.46 7768.42
-183.546 -3788.9 7851.87
-208.63 -3726.85 7954.12
-66.7309 -4115.89 7785.74
-58.4444 -4015.39 7837.27
-24.9619 -3952.42 7834.72
-50.0687 -3756.02 7937.45
133.384 -3890.47 7967.79
16.6399 -3773.06 7991.17
8.37123 -3681.79 8102.74
-283.684 -3563.65 8033.23
-167.184 -3643.49 8068.76
-208.687 -3580.72 8060.42
-100.241 -3664.9 8078.81
-100.226 -3580.77 8078.67
-317.091 -3395.26 7992.98
-275.551 -3298.56 7986.44
-41.7693 -3631.29 8080.57
167.038 -3321.08 8213.36
141.97 -3565.52 8273.48
91.8808 -3464.38 8250.9
91.8808 -3464.38 8250.9
83.5198 -3405.64 8256.76
208.527 -3960.12 7780.98
308.516 -3950.98 7790.54
383.79 -3972.46 7773.1
283.701 -3885.8 7934.63
308.648 -3880.26 7789.81
308.677 -3919 7896.18
642.342 -3934.75 7807.51
658.969 -3892.52 7796.16
676.528 -3674.75 8308.96
676.528 -3674.75 8308.96
233.961 -3566.7 8436.92
242.271 -3549.47 8388.72
208.718 -3456.76 8327.39
242.197 -3494.31 8325.01
342.478 -3578.45 8333.65
334.17 -3414.99 8382
383.231 -3508.56 8453.55
309.25 -3576.05 8527.04
225.672 -3376.67 8335.62
292.39 -3305.24 8347.09
292.404 -3246.07 8304.28
342.612 -3355.74 8397.06
401.009 -3331.06 8414.2
350.843 -3199.66 8285.05
317.422 -3153.93 8351.17
392.361 -3229.3 8357.54
467.927 -3390.05 8467.41
534.858 -3323.05 8477.69
434.443 -3267.44 8347.95
476.182 -3204.81 8419.27
476.182 -3204.81 8419.27
543.005 -3255 8430.1
609.877 -3331.66 8548.08
593.268 -3201.37 8537.75
-283.646 -3116.79 7842.64
-283.646 -3116.79 7842.64
-233.502 -2775.96 7744.13
-166.784 -2801.75 7818.68
-166.784 -2801.75 7818.68
-158.505 -2759.54 7813.28
-49.957 -3075.67 7979.22
-50.171 -2776.82 7895.57
-116.766 -2116.84 7777.77
-83.3949 -2267.83 7775.88
-33.3014 -2104.41 7840.53
-66.8081 -2163.1 7828.54
33.3786 -2209.39 7851.78
33.3786 -2209.39 7851.78
49.8029 -2150.62 7863.04
58.4488 -2100.13 7855.41
116.464 -2121.47 7916.9
200.421 -3043.57 8211.58
367.368 -2778.24 8146.15
400.798 -2643.07 8058.49
425.989 -2997.9 8311.51
534.597 -3027.93 8393.37
509.497 -2972.74 8332.18
618.423 -3087.1 8455.18
568.071 -2960.15 8326.77
626.688 -2977.75 8449.86
676.769 -3014.97 8393.45
534.636 -2826.06 8393.22
676.584 -2749.72 8308.62
183.601 -2134.08 7925.51
367.237 -2336.43 8061.43
434.19 -2483.72 8113.97
809.108 -3884.01 7784.56
910.114 -3648.15 8189.96
910.114 -3648.15 8189.96
752.218 -3424.45 8547.39
769.025 -3533.85 8571.37
902.593 -3617.39 8535.93
902.593 -3617.39 8535.93
827.287 -3466.15 8531.52
752.227 -3364.79 8504.29
751.939 -3314.45 8506.01
701.917 -3154.44 8454.5
768.852 -3229.97 8471.56
793.641 -3192.21 8470.26
902.244 -3280.28 8430.05
827.112 -3272.09 8467.97
1069.21 -3515.16 8363.8
969.446 -3423.62 8460.17
1102.76 -3473.29 8360.93
961.846 -3292.49 8396.83
1160.9 -3312.55 8292.94
1268.31 -3788.18 7898.36
1268.31 -3788.18 7898.36
1343.5 -3800.87 7924.15
1701.69 -4189.66 7774.12
1710.5 -4006.38 7917.62
1585.57 -3931.1 7947.34
1585.57 -3931.1 7947.34
1618.95 -3931.11 7945.27
1719.21 -3796.95 7989.4
1319.37 -3412.68 8196.3
1386.2 -3479.93 8206.77
1436.4 -3529.86 8185.21
1461.24 -3479.58 8190.38
1218.92 -3169.68 8232.53
1285.89 -3219.18 8198.82
1394.41 -3336.78 8179.96
1394.41 -3336.78 8179.96
1477.61 -3184.6 8093.54
1468.91 -3243.56 8145.07
1569.72 -3588.48 8149.81
1586.61 -3546.91 8202.01
1519.41 -3433.05 8143.26
1686.72 -3597.02 8182.07
1611.44 -3496.2 8156.6
1702.43 -3166.87 7965.53
1702.43 -3166.87 7965.53
1519.61 -3336.33 8142.15
1610.74 -3150.46 7993.93
1610.74 -3150.46 7993.93
1269.47 -3526.94 8295.56
1311.59 -3485.11 8307.17
1218.98 -3329.12 8297.01
1319.32 -3362.66 8261.6
1319.32 -3362.66 8261.6
1185.63 -3051.19 8190.63
801.93 -3027.2 8335.56
793.657 -2922.64 8384.03
918.937 -3116.06 8396.8
826.828 -2892.71 8340.39
1085.87 -3118.71 8265.75
734.633 -2622.93 8220.2
743.318 -2534.68 8212.37
818.356 -2602.04 8239.38
701.828 -2484.46 8247.01
885.239 -2589.39 8234.97
793.227 -2109.91 8178.25
1043.49 -2457.92 8068.48
1026.38 -2108.77 7960.31
1302.67 -3097.5 8208.15
1419.17 -3067.7 8120.42
1310.71 -2874.09 8117.39
1552.06 -2919.19 7950.26
1668.87 -3023.69 7925.16
1668.87 -3023.69 7925.16
1543.97 -2961.15 7998.11
1636.1 -3092.17 8075.82
1619.17 -2965.66 8009.2
1518.97 -2881.48 7979.28
1726.65 -2665.83 7778.44
1569.05 -2877.41 8001.75
1343.54 -2453.03 7967.15
1451.58 -2301 7820.72
1426.75 -2200.52 7880.71
1501.38 -2250.18 7757.98
1559.71 -2275.21 7738.46
1526.4 -2174.53 7740.22
1559.79 -2224.91 7737.99
-75.0112 -2066.41 7769.85
0.131731 -2058.27 7838.26
-0.0339188 -2041.25 7839.25
-0.0339188 -2041.25 7839.25
108.311 -1999.63 7921.55
75.3144 -1961.81 7906.6
-341.962 -1524.61 7783.22
-291.932 -1554.08 7805.85
-291.932 -1554.08 7805.85
-300.455 -1466.06 7854.9
-267.005 -1327.72 7937.21
-200.219 -1503.86 7863.28
-200.219 -1503.86 7863.28
-317.228 -1285.74 7951.49
-300.522 -1218.8 8045.7
-283.809 -1311.06 7991.71
-275.419 -1256.69 8106.23
-258.62 -1223.15 8094.09
-225.808 -1235.68 8095.58
-333.523 -1080.28 8087.6
-200.294 -1311.18 8011.96
0.0149601 -1353.29 8087.34
33.3973 -1302.85 8085.43
133.645 -1265.21 8157.9
-125.137 -1118.81 8265.09
-158.401 -1051.08 8251.48
58.3961 -1177.09 8253.3
41.7696 -1068.07 8307.02
141.992 -1110.03 8273.38
459.366 -1983.45 8074.31
534.281 -2017.05 8080.55
192.148 -1261.28 8216.92
192.148 -1261.28 8216.92
267.174 -1214.72 8137.27
242.182 -1210.93 8282.46
-317.29 -941.648 8184.62
-283.985 -1000.44 8155.61
-292.356 -899.59 8246.22
-225.482 -974.973 8299.21
-150.356 -933.686 8368.32
-192.024 -879.137 8403.18
-350.897 -542.609 8420.61
-192.212 -542.828 8610.17
-108.158 -593.055 8628.13
-50.1456 -921.213 8441.38
-50.1456 -921.213 8441.38
8.25187 -950.447 8379.99
-0.090169 -853.93 8428.27
50.1161 -900.147 8450.35
167.083 -824.286 8405.04
-58.652 -748.83 8490.58
-8.35578 -744.669 8476.18
66.9253 -673.142 8502.15
-83.8834 -786.64 8530.2
8.42441 -702.535 8542.77
-0.115901 -652.055 8592.25
8.41763 -542.81 8649.37
-308.915 -432.896 8532.55
-259.09 -454.501 8599.3
-259.09 -454.501 8599.3
-192.365 -416.745 8653.59
-141.951 -416.63 8659.88
-301.124 -235.645 8636.08
-259.234 -159.967 8748.83
-33.3111 -492.439 8699.28
33.4664 -437.69 8696.11
-41.9362 -357.741 8670.64
-41.9362 -357.741 8670.64
0.0160484 -332.358 8740.71
-16.7733 -290.385 8731.38
-16.7733 -290.385 8731.38
242.15 -912.722 8432.14
576.524 -1000.84 8427.61
576.524 -1000.84 8427.61
-158.904 -126.264 8864.32
751.387 -2050.9 8165.18
801.487 -1992.02 8129.96
876.51 -2071.35 8049.39
901.437 -1983.15 8032.36
876.716 -1979.67 8177.25
926.638 -1432.88 8093.06
768.426 -1009.21 8323.46
1177.26 -310.905 8153.44
1068.57 -163.837 8158.48
1168.82 -260.63 8123.58
1268.77 -264.722 8047
1235.5 -298.338 8091.58
1227.21 -239.446 8097.17
1260.54 -256.392 8095.47
1244.13 -252.286 8192.12
1601.83 -390.367 7851.21
1601.83 -390.367 7851.21
1802.14 -4156.62 7845.76
1819.45 -4082.56 7997.33
1769.58 -3709.73 8082.61
1869.9 -3697.05 8104.71
2036.04 -4148.83 7916.98
2153.1 -4190.97 7948.49
2070.21 -4091.58 8077.94
2228.52 -4174.85 8016.74
2020.78 -3874.57 8219.53
2020.78 -3874.57 8219.53
2254.89 -3769.86 8254.06
1820.21 -3575.6 8145.39
1744.92 -3453.77 8120.06
1995.25 -3625.68 8116.26
1945.09 -3650.76 8094.25
1945.09 -3650.76 8094.25
1978.91 -3428.61 8169.83
1777.38 -3259.77 7970.93
1777.38 -3259.77 7970.93
1777.52 -3208.99 7970.12
1894.48 -3217.14 7958.74
1969.48 -3263.17 7949.19
1827.88 -3284.13 7990.89
1819.62 -3335.31 8039.96
1819.62 -3335.31 8039.96
1777.4 -3176.17 7992.61
2062.66 -3605.59 8232.45
2087.42 -3546.32 8172.39
2103.92 -3592.85 8183.43
2078.34 -3309.85 8029.54
2070.5 -3361.21 8141.98
2070.5 -3361.21 8141.98
1837.46 -3463.55 8297.7
2188.13 -3584.69 8258.03
2429.1 -3675.39 8075.56
2479.12 -3717.16 8054.35
2537.13 -3964.42 7992.45
2586.82 -3829.13 7929.11
2712.08 -3812.6 7940.57
2786.45 -3748.67 7838.84
2785.87 -3676.45 7753.94
2737.82 -3897.38 8043.15
2487.17 -3565.61 8006.12
2520.78 -3595.37 8046.68
2503.68 -3435.55 7995.16
2469.57 -3291.69 7855.04
2452.5 -3215.4 7803.51
2452.5 -3215.4 7803.51
2420.87 -3402.59 8080.92
2594.34 -3618.34 7803.21
2552.96 -3601.98 7853.47
2636.75 -3542.48 7827.45
2569.73 -3610.46 7862.85
2536.87 -3598.69 7950.1
2611.47 -3622.96 7869.25
2653.57 -3665.58 7924.79
2603.24 -3425.66 7874.6
2603.24 -3425.66 7874.6
2727.73 -3416.53 7780.24
2727.73 -3416.53 7780.24
2652.82 -3391.46 7775.1
2552.35 -3278.1 7769.17
2034.98 -2900.33 7726.81
2193.73 -2954.9 7749.88
2268.99 -3064.14 7774.99
2268.99 -3064.14 7774.99
2887.41 -3938.55 7952.27
3029.25 -3963.47 7944.59
-183.416 2166.02 7575.97
-100.057 2601.89 7476.09
-83.382 2510.2 7585.02
-16.6608 2510.24 7595.83
99.9741 2573.01 7572.6
99.9741 2573.01 7572.6
-324.989 2856.44 7248.93
-125.004 2677.18 7429.58
-99.9909 2786.07 7369.95
-108.276 2882.47 7375.41
-233.203 2944.99 7305.18
-225.114 2952.96 7258.58
-266.555 2969.38 7201.61
-175.06 3037.31 7322.88
-100.049 3095.68 7285.58
-66.5736 2840.95 7445.71
-8.30918 2882.17 7342.24
99.8484 2828.02 7424.76
-8.23844 2635.56 7490.17
-8.23844 2635.56 7490.17
50.1029 2673.39 7506.88
66.6078 2731.99 7496.26
166.603 2790.37 7462.97
66.6144 2899.04 7369.02
158.427 2898.93 7361.69
66.6138 3120.94 7305.37
124.845 3116.77 7322.62
258.588 2510.46 7639.65
324.98 2531.73 7694.92
258.341 2857.89 7492.11
316.695 2832.61 7494.08
183.286 2928 7323.91
399.96 3145.96 7323.36
