ply
format ascii 1.0
comment author: Caleb Adams & Jackson Parker
comment SSRL CV simple PLY writer
element vertex 1785
property float x
property float y
property float z
end_header
-4.81911 -7.5389 -5.48549
-4.84412 -7.58492 -5.48842
-4.71948 -7.54733 -5.47868
-4.66989 -7.66433 -5.47786
-4.66984 -7.54742 -5.47809
-4.43757 -7.50621 -5.48804
-4.38022 -7.60315 -5.53447
-4.39594 -7.64388 -5.48285
-4.37114 -7.56044 -5.47845
-4.78552 -8.18901 -5.44534
-4.81037 -8.05137 -5.44945
-4.81037 -8.05137 -5.44945
-4.70234 -8.06775 -5.42714
-4.59403 -8.24578 -5.34706
-4.80215 -7.80138 -5.45523
-4.87675 -7.85122 -5.45911
-4.83548 -7.86792 -5.45186
-4.84366 -7.75926 -5.44632
-4.84366 -7.75926 -5.44632
-4.66908 -7.86752 -5.41541
-4.61993 -7.8352 -5.47128
-4.65315 -7.76016 -5.46863
-4.6363 -7.61394 -5.46028
-4.48623 -8.13426 -5.39064
-4.38673 -7.90059 -5.38293
-4.38673 -7.90059 -5.38293
-4.29504 -7.89133 -5.32748
-4.16258 -7.8921 -5.35086
-4.46208 -7.79333 -5.4493
-4.5034 -7.69721 -5.4418
-4.46202 -7.69736 -5.44977
-4.3374 -7.80151 -5.42505
-4.46219 -7.60144 -5.44881
-4.3956 -7.59741 -5.44032
-4.3956 -7.59741 -5.44032
-4.33781 -7.58142 -5.46724
-4.29562 -7.74695 -5.41321
-4.19618 -7.75951 -5.40506
-4.23003 -7.61468 -5.46556
-5.59282 -6.21454 -6.25333
-5.53442 -6.1891 -6.2388
-5.53453 -6.25191 -6.23802
-5.29344 -6.03917 -6.24142
-5.35196 -6.05188 -6.25528
-5.59361 -7.50009 -5.70937
-5.62686 -7.42904 -5.70639
-5.52643 -7.45288 -5.63628
-5.48469 -7.38207 -5.63214
-5.6192 -7.22531 -5.75432
-5.47706 -7.30787 -5.67975
-5.54448 -7.17954 -5.75127
-5.54448 -7.17954 -5.75127
-5.37731 -7.37874 -5.67351
-5.32615 -7.48162 -5.56927
-5.29313 -7.34358 -5.57056
-5.61974 -7.08417 -5.79654
-5.59414 -6.99158 -5.75151
-5.53602 -6.97057 -5.73581
-5.53602 -6.97057 -5.73581
-5.53741 -6.85124 -5.84079
-5.43565 -6.99906 -5.68797
-5.30263 -6.94057 -5.67014
-5.30263 -6.94057 -5.67014
-5.40985 -7.08587 -5.62993
-5.42813 -6.87063 -5.73491
-5.38625 -6.89579 -5.73152
-5.42741 -6.92002 -5.69398
-5.39542 -6.78752 -5.76517
-5.32802 -6.88716 -5.71637
-5.3453 -6.82093 -5.75951
-4.94512 -7.2447 -5.61398
-5.22666 -7.06823 -5.56163
-5.24558 -6.84612 -5.75298
-5.24558 -6.84612 -5.75298
-5.22953 -6.7968 -5.79294
-5.1709 -6.87114 -5.74951
-5.07998 -6.82583 -5.77885
-5.4965 -6.68949 -5.89145
-5.54861 -6.57879 -6.03618
-5.51552 -6.46668 -6.06886
-5.45448 -6.68861 -5.86606
-5.45452 -6.64737 -5.86584
-5.43876 -6.58969 -5.91862
-5.28017 -6.70578 -5.8553
-5.28017 -6.70578 -5.8553
-5.28026 -6.59718 -5.85477
-5.43075 -6.51534 -5.96852
-5.35541 -6.55611 -5.90088
-5.29049 -6.46175 -6.00995
-5.44594 -6.73428 -5.82831
-5.64213 -6.28878 -6.19592
-5.57533 -6.30544 -6.18835
-5.48376 -6.17174 -6.17603
-5.34221 -6.20475 -6.14221
-5.32563 -6.21337 -6.15456
-5.35146 -6.13054 -6.21281
-5.30134 -6.10947 -6.19229
-5.14822 -6.67376 -5.93559
-4.96473 -6.63103 -5.85378
-4.94874 -6.52341 -5.90755
-5.26671 -6.27945 -6.09798
-5.10998 -6.18885 -6.1731
-4.57939 -7.34027 -5.54922
-4.66366 -7.07084 -5.66545
-4.43833 -7.43175 -5.5504
-4.47141 -7.28194 -5.54869
-4.34727 -7.29517 -5.58022
-4.34727 -7.29517 -5.58022
-4.39766 -7.15421 -5.62891
-4.27203 -7.44852 -5.51299
-4.17281 -7.35745 -5.54799
-4.17281 -7.35745 -5.54799
-4.25545 -7.31102 -5.51076
-4.20598 -7.28649 -5.54581
-4.20598 -7.28649 -5.54581
-4.33274 -6.91014 -5.75873
-4.39989 -6.90711 -5.83141
-4.24028 -7.05471 -5.66269
-4.25748 -7.0055 -5.7137
-4.16669 -6.96079 -5.78572
-4.22439 -7.022 -5.70076
-4.30681 -7.02955 -5.65718
-4.30841 -6.82762 -5.81847
-4.66125 -7.47207 -5.46365
-4.27597 -6.69108 -5.89081
-4.16808 -6.72043 -5.88911
-4.18608 -6.48048 -6.03917
-4.18662 -6.40596 -6.08049
-4.25202 -6.52567 -5.99281
-4.19392 -6.53811 -5.99117
-4.41912 -6.3721 -6.07143
-4.16223 -6.36503 -6.14038
-4.05451 -8.26733 -5.32892
-3.97162 -8.25487 -5.33086
-3.97162 -8.25487 -5.33086
-3.68952 -8.27544 -5.2822
-3.68952 -8.27544 -5.2822
-3.58921 -8.31658 -5.2572
-3.63929 -8.30017 -5.27745
-3.84043 -7.53232 -5.49382
-3.76577 -7.54073 -5.48997
-4.09579 -8.23838 -5.34363
-4.00474 -8.16731 -5.32898
-4.06199 -8.18296 -5.28328
-4.02901 -8.1243 -5.26987
-4.02901 -8.1243 -5.26987
-4.05444 -7.98349 -5.32928
-4.12119 -7.92554 -5.35895
-3.78037 -8.10868 -5.29814
-3.86316 -8.08268 -5.25244
-3.77215 -8.14171 -5.28169
-3.89667 -7.99598 -5.30705
-3.93003 -7.96679 -5.30341
-3.94625 -8.05777 -5.27126
-4.08758 -7.82089 -5.32727
-4.10426 -7.87115 -5.33656
-3.864 -7.79659 -5.35052
-3.93045 -7.80944 -5.36739
-3.91424 -7.69741 -5.39957
-3.91424 -7.69741 -5.39957
-3.93051 -7.76767 -5.367
-3.87281 -7.58907 -5.40776
-3.82348 -7.60666 -5.44937
-3.73096 -8.1336 -5.28841
-3.73096 -8.1336 -5.28841
-3.7639 -7.99165 -5.28755
-3.72253 -7.97518 -5.2953
-3.72253 -7.97518 -5.2953
-3.74686 -7.98232 -5.23615
-3.74686 -7.98232 -5.23615
-3.70588 -8.04167 -5.28587
-3.50701 -8.1675 -5.2991
-3.50674 -8.25011 -5.2567
-3.44899 -8.04239 -5.29739
-3.68179 -7.78924 -5.37328
-3.74032 -7.74414 -5.43063
-3.73103 -7.63381 -5.3324
-3.72361 -7.53968 -5.42152
-3.64896 -7.63137 -5.41762
-3.64083 -7.50636 -5.42276
-3.63233 -7.56034 -5.40805
-3.52453 -7.79404 -5.40607
-3.39995 -7.7771 -5.38084
-3.39995 -7.7771 -5.38084
-3.13389 -8.36833 -5.29329
-3.08457 -8.26086 -5.33418
-3.16891 -7.91409 -5.53619
-2.71228 -8.23086 -5.47514
-3.34933 -8.08395 -5.27589
-3.34145 -7.94727 -5.32358
-3.39076 -8.02558 -5.28235
-3.05136 -8.1398 -5.33649
-3.20062 -8.04376 -5.34494
-3.2006 -7.92692 -5.34503
-3.31679 -7.81454 -5.36235
-3.30052 -7.75711 -5.41649
-3.27542 -7.71454 -5.37006
-3.27542 -7.71454 -5.37006
-3.30068 -7.61108 -5.41559
-3.25941 -7.53187 -5.42259
-3.22604 -7.56521 -5.41139
-3.1679 -7.86136 -5.39565
-3.0429 -7.82678 -5.32191
-3.07612 -7.78908 -5.31931
-3.09314 -7.7318 -5.38496
-3.17575 -7.61008 -5.34853
-3.11842 -7.50729 -5.43024
-3.09311 -7.68152 -5.38515
-3.06809 -7.63985 -5.36755
-3.0521 -7.56576 -5.41986
-2.93531 -8.03623 -5.36226
-2.90244 -7.97848 -5.39175
-2.66251 -8.18903 -5.46745
-2.73679 -8.14619 -5.41577
-3.0186 -7.69855 -5.38025
-2.85285 -7.72425 -5.40498
-3.01007 -7.6235 -5.38763
-2.94394 -7.66182 -5.41992
-2.99356 -7.55718 -5.40648
-2.94423 -7.58234 -5.41812
-2.85293 -7.56977 -5.40436
-2.89421 -7.57384 -5.3974
-2.91081 -7.5198 -5.40726
-2.83618 -7.53629 -5.39571
-2.83618 -7.53629 -5.39571
-2.68719 -7.84179 -5.42894
-2.73661 -7.77488 -5.41689
-2.68756 -7.70904 -5.47031
-2.7867 -7.61234 -5.43727
-2.69563 -7.6213 -5.46582
-2.66219 -7.59969 -5.42583
-2.6953 -7.52874 -5.42412
-2.73671 -7.5703 -5.41632
-4.02322 -6.01324 -6.35847
-3.87399 -6.09325 -6.38535
-4.09073 -7.1338 -5.63406
-4.12349 -7.20394 -5.58977
-4.12349 -7.20394 -5.58977
-3.99071 -7.2831 -5.56998
-3.86592 -7.35406 -5.56061
-3.78285 -7.35801 -5.54115
-3.82477 -7.25438 -5.58908
-4.01824 -6.81632 -5.86171
-3.77825 -6.77601 -5.93854
-3.77825 -6.77601 -5.93854
-4.06634 -7.08919 -5.69389
-4.13301 -6.9477 -5.73209
-4.0919 -6.97263 -5.73824
-3.97586 -6.98172 -5.76402
-4.05007 -7.03084 -5.71179
-4.04223 -6.88142 -5.75964
-3.85939 -6.97725 -5.73352
-3.7854 -6.84936 -5.82843
-3.75756 -7.49072 -5.49554
-3.7503 -7.23866 -5.62828
-3.46765 -7.37934 -5.53723
-3.54233 -7.27912 -5.54114
-3.5179 -7.20508 -5.60075
-3.5179 -7.20508 -5.60075
-3.46853 -7.1388 -5.6201
-3.46794 -7.18808 -5.57961
-3.66997 -6.7548 -5.90218
-3.67714 -6.91546 -5.76996
-3.6108 -6.85346 -5.80391
-3.61872 -6.91949 -5.75586
-3.51033 -6.98545 -5.6908
-3.40286 -7.00212 -5.68646
-3.55898 -7.09981 -5.5508
-3.44308 -7.10565 -5.64166
-3.44308 -7.10565 -5.64166
-3.56939 -6.80321 -5.78949
-3.46154 -6.86586 -5.78728
-3.40275 -6.86916 -5.73125
-3.42811 -6.8283 -5.7764
-3.99784 -7.46899 -5.45999
-3.74902 -7.42345 -5.46642
-4.11031 -6.6668 -5.92998
-4.11031 -6.6668 -5.92998
-4.07733 -6.57977 -5.96092
-4.13634 -6.48057 -6.03864
-3.92783 -6.65918 -5.95328
-3.85337 -6.65133 -5.98453
-3.56204 -6.67972 -5.90042
-3.38417 -7.44507 -5.47614
-3.21022 -7.37918 -5.50674
-3.33517 -7.2216 -5.57402
-3.38503 -7.24625 -5.55917
-3.34296 -7.29579 -5.52705
-3.30999 -7.16704 -5.55722
-3.15215 -7.31641 -5.49052
-3.18527 -7.27069 -5.5033
-3.36041 -6.99692 -5.61977
-3.22697 -7.11247 -5.53766
-3.23499 -7.04921 -5.48936
-3.26932 -6.93918 -5.6487
-3.28682 -6.79872 -5.75571
-3.28682 -6.79872 -5.75571
-3.10296 -7.07187 -5.58904
-3.03611 -6.97896 -5.51605
-3.18709 -6.75273 -5.73399
-2.75391 -7.22916 -5.48087
-2.97084 -6.76856 -5.66704
-3.23484 -7.45733 -5.44626
-3.12677 -7.37819 -5.44585
-3.06859 -7.44481 -5.43036
-3.06869 -7.30295 -5.42975
-3.01882 -7.28615 -5.42268
-3.01882 -7.28615 -5.42268
-3.07947 -6.68674 -5.77426
-2.84676 -6.69466 -5.72568
-2.83878 -6.64525 -5.7735
-2.67258 -6.59955 -5.75624
-2.33983 -8.2622 -5.54994
-2.5963 -8.18978 -5.49982
-2.52183 -8.15632 -5.49428
-2.39765 -8.22074 -5.56776
-2.45545 -8.19896 -5.52754
-2.38877 -8.1246 -5.57704
-2.33952 -8.18715 -5.55173
-2.33122 -8.13701 -5.55775
-2.36412 -7.94835 -5.51378
-2.5799 -7.70171 -5.51062
-2.52991 -7.81821 -5.48972
-2.52991 -7.81821 -5.48972
-2.33935 -7.78988 -5.50945
-2.40535 -7.55518 -5.4785
-2.31431 -7.5976 -5.50647
-2.30607 -7.68119 -5.5121
-2.14128 -8.14417 -5.68135
-2.21538 -8.07982 -5.60281
-2.09985 -7.97368 -5.73235
-2.21492 -7.9365 -5.5405
-2.21492 -7.9365 -5.5405
-2.01689 -8.1374 -5.75528
-1.91739 -8.17163 -5.78925
-1.92591 -8.03816 -5.80365
-2.09062 -7.77204 -5.66431
-2.14046 -7.72459 -5.5782
-2.19811 -7.51418 -5.49583
-2.14863 -7.63599 -5.5296
-2.12389 -7.51603 -5.58987
-2.04151 -7.75152 -5.67429
-1.97535 -7.73213 -5.74876
-1.99157 -7.55083 -5.65285
-2.02441 -7.52527 -5.60963
-2.02441 -7.52527 -5.60963
-1.95864 -7.6095 -5.65332
-2.59611 -8.12209 -5.45737
-2.57939 -7.83394 -5.44844
-2.56276 -7.617 -5.44597
-2.44673 -7.58015 -5.47098
-2.44673 -7.58015 -5.47098
-1.43732 -8.30112 -6.15646
-1.41229 -8.3552 -6.13872
-1.41229 -8.3552 -6.13872
-1.33751 -8.2632 -6.13379
-1.29571 -8.3333 -6.07898
-1.80187 -8.22851 -5.90344
-1.79332 -7.96037 -5.8676
-1.61983 -8.19459 -6.07916
-1.64454 -8.08514 -6.04115
-1.53688 -8.15808 -6.12277
-1.61146 -8.17797 -6.08543
-1.58646 -8.13088 -6.02446
-1.61114 -7.98395 -5.98677
-1.86787 -8.18511 -5.83012
-1.75169 -7.71773 -5.85468
-1.70189 -7.68869 -5.85396
-1.62736 -7.71457 -5.89117
-1.68557 -7.76905 -5.907
-1.53633 -7.78301 -5.96092
-1.58582 -7.86264 -5.98517
-1.62751 -7.65188 -5.89035
-1.67683 -7.64261 -5.85089
-1.8758 -7.67047 -5.78328
-1.63549 -7.5966 -5.84326
-1.68497 -7.52047 -5.80292
-1.48689 -8.2246 -6.10127
-1.44552 -8.16625 -6.10826
-1.40393 -8.24572 -6.10191
-1.34558 -8.03565 -6.04367
-1.51143 -7.91363 -6.02144
-1.29609 -8.06555 -6.07671
-1.20432 -8.23273 -6.06458
-1.23762 -8.18663 -6.06201
-1.23762 -8.18663 -6.06201
-1.17943 -8.07261 -6.00316
-1.16251 -8.03831 -5.95244
-1.1874 -7.89117 -5.91374
-1.4617 -7.74209 -6.01312
-1.44484 -7.61485 -5.90436
-1.45305 -7.53135 -5.89906
-1.47754 -7.56478 -5.92006
-1.20388 -7.71049 -5.85991
-1.30336 -7.56767 -5.8268
-2.33568 -6.05684 -6.34286
-2.18526 -6.15562 -6.23016
-2.48011 -7.42154 -5.48222
-2.43071 -7.45579 -5.52293
-2.50588 -6.76462 -5.63318
-2.4223 -7.03017 -5.52971
-2.306 -7.04663 -5.51248
-2.35621 -6.98139 -5.60452
-2.08217 -7.49891 -5.56308
-2.18962 -7.26344 -5.48122
-2.23954 -7.26368 -5.50259
-2.20657 -7.20177 -5.53227
-2.09029 -7.22664 -5.51497
-2.1323 -7.2688 -5.54007
-2.14862 -7.18905 -5.52972
-2.01599 -7.47453 -5.59468
-2.01619 -7.32829 -5.59354
-1.99994 -7.39193 -5.64645
-1.95829 -7.34186 -5.65541
-1.90852 -7.37941 -5.63309
-2.05792 -7.28276 -5.62024
-1.99958 -7.13648 -5.60547
-1.92498 -7.13612 -5.57892
-2.22304 -7.09654 -5.49245
-2.0907 -7.07746 -5.57735
-2.0907 -7.07746 -5.57735
-2.00756 -7.06048 -5.5582
-2.00756 -7.06048 -5.5582
-1.99095 -7.06454 -5.54866
-1.92514 -6.97014 -5.64265
-1.9502 -6.92827 -5.6601
-2.38877 -7.4797 -5.45406
-2.38877 -7.4797 -5.45406
-2.41364 -7.41731 -5.47247
-2.35539 -7.28362 -5.45743
-2.36628 -6.38483 -5.90669
-2.59798 -6.65789 -5.75137
-2.61461 -6.61189 -5.75372
-2.53142 -6.61995 -5.73471
-2.55697 -6.50055 -5.84369
-2.41521 -6.62418 -5.72403
-2.35653 -6.66039 -5.64594
-2.40651 -6.55648 -5.6671
-2.42407 -6.45021 -5.81621
-2.31568 -6.46665 -5.80214
-2.27677 -6.21372 -6.20039
-2.44175 -6.3321 -6.01546
-2.10039 -6.43461 -5.85916
-1.91802 -6.44375 -5.89371
-2.09977 -6.63789 -5.77615
-2.15012 -6.4925 -5.82397
-1.9837 -6.60842 -5.74269
-2.04178 -6.54169 -5.75899
-2.00887 -6.45962 -5.84601
-2.15941 -6.34506 -6.02188
-2.26819 -6.1675 -6.17163
-2.02666 -6.31633 -6.04344
-1.80103 -7.38519 -5.71434
-1.75999 -7.43486 -5.71954
-1.86686 -7.17139 -5.68512
-1.80896 -7.29166 -5.62442
-1.69353 -7.4201 -5.79552
-1.67681 -7.36603 -5.80811
-1.59401 -7.3666 -5.82956
-1.59401 -7.3666 -5.82956
-1.62677 -7.16454 -5.74417
-1.62677 -7.16454 -5.74417
-1.69319 -7.14704 -5.7115
-1.56043 -7.26545 -5.77618
-1.76769 -7.11298 -5.67426
-1.79271 -6.96344 -5.72043
-1.72623 -6.95915 -5.71048
-1.81733 -7.09537 -5.61821
-1.88335 -7.10703 -5.58778
-1.80067 -7.02006 -5.63042
-1.89192 -7.00776 -5.64476
-1.88386 -6.77888 -5.69246
-1.71826 -6.88054 -5.7574
-1.72642 -6.77605 -5.75235
-1.78464 -6.91166 -5.66034
-1.61006 -6.9763 -5.73494
-1.63493 -6.86779 -5.73912
-1.58523 -6.89688 -5.73077
-1.45283 -7.43015 -5.85747
-1.45283 -7.43015 -5.85747
-1.46134 -7.49793 -5.9147
-1.39472 -7.42141 -5.85558
-1.37806 -7.48868 -5.853
-1.41967 -7.36323 -5.85918
-1.47752 -7.31646 -5.81975
-1.36158 -7.44556 -5.79962
-1.47736 -7.18593 -5.75633
-1.42769 -7.19437 -5.76912
-1.3364 -7.3037 -5.79749
-1.2864 -7.39535 -5.77623
-1.22823 -7.34431 -5.71736
-1.20318 -7.23886 -5.67178
-1.20324 -7.18918 -5.67143
-1.37763 -6.98854 -5.70554
-1.3611 -6.9062 -5.75966
-1.41113 -6.76464 -5.80208
-1.361 -6.84237 -5.69611
-1.361 -6.84237 -5.69611
-1.32786 -6.95488 -5.68303
-1.25304 -6.95112 -5.69371
-1.27762 -7.08373 -5.63535
-1.16992 -7.11293 -5.61684
-1.18644 -7.02917 -5.62021
-1.28628 -6.86819 -5.7343
-1.25294 -6.79715 -5.73695
-1.15329 -6.90081 -5.67145
-1.73532 -6.4936 -5.86523
-1.66862 -6.52283 -5.85626
-1.51977 -6.39543 -5.97237
-1.80926 -6.68366 -5.73056
-1.80971 -6.61816 -5.81406
-1.72668 -6.5678 -5.79391
-1.75974 -6.60967 -5.80734
-1.87564 -6.5599 -5.82741
-1.76704 -6.53001 -5.80724
-1.70157 -6.63033 -5.79126
-1.56044 -6.71821 -5.77612
-1.60313 -6.296 -6.03392
-1.55299 -6.25335 -5.98495
-1.54474 -6.00795 -6.0766
-1.52851 -6.11583 -6.00703
-1.56984 -6.17054 -6.03633
-1.37792 -6.681 -5.78951
-1.36978 -6.55146 -5.79453
-1.30321 -6.71784 -5.74205
-1.18681 -6.51722 -5.72479
-1.18681 -6.51722 -5.72479
-1.42809 -6.34412 -5.89557
-1.40305 -6.30603 -5.84962
-1.42011 -6.20272 -5.94243
-1.3949 -6.24808 -5.89746
-1.49552 -6.02189 -6.15807
-1.46989 -6.16536 -5.96509
-1.34521 -6.11079 -5.93858
-1.37014 -6.04467 -5.99988
-1.26214 -6.31974 -5.9185
-1.32033 -6.04805 -5.93462
-1.20384 -6.1559 -5.86031
-1.17912 -6.01881 -5.91934
-1.21187 -6.28403 -5.77045
-1.21195 -6.22204 -5.81281
-0.714003 -8.27528 -5.85341
-0.672211 -8.28767 -5.8268
-0.672211 -8.28767 -5.8268
-0.481432 -8.27572 -5.63976
-1.07954 -8.19314 -5.95309
-1.13786 -8.1732 -6.01125
-1.09615 -8.08867 -5.94135
-0.996548 -8.17715 -5.97498
-0.996548 -8.17715 -5.97498
-1.10419 -7.91528 -5.85176
-1.10419 -7.91528 -5.85176
-1.12914 -7.9538 -5.91258
-1.04615 -8.04552 -5.89201
-0.813536 -8.20028 -5.86281
-1.03759 -7.98122 -5.79948
-0.995987 -7.89734 -5.7865
-0.962899 -7.95671 -5.81577
-0.962899 -7.95671 -5.81577
-0.896584 -8.11554 -5.81912
-0.846718 -8.07383 -5.81841
-0.813419 -8.00987 -5.757
-0.796846 -7.91396 -5.75392
-1.13727 -7.85596 -5.80782
-0.987941 -7.78469 -5.7907
-1.01263 -7.83375 -5.73187
-0.962584 -7.84211 -5.7323
-0.896416 -7.86296 -5.72038
-0.913261 -7.78067 -5.78575
-0.854829 -7.71984 -5.66479
-0.912777 -7.68142 -5.62489
-0.862921 -7.54304 -5.57516
-0.912716 -7.55946 -5.56157
-0.912716 -7.55946 -5.56157
-0.838085 -7.61028 -5.61348
-0.838085 -7.61028 -5.61348
-0.796241 -7.60536 -5.56635
-0.771405 -7.52499 -5.51965
-0.771405 -7.52499 -5.51965
-0.614167 -8.20205 -5.72507
-0.663973 -8.13492 -5.7262
-0.448113 -8.23472 -5.68468
-0.713494 -7.81045 -5.58705
-0.697007 -7.77807 -5.6404
-0.721658 -7.67596 -5.53958
-0.721658 -7.67596 -5.53958
-0.680198 -7.63341 -5.49019
-0.680198 -7.63341 -5.49019
-0.738394 -7.56676 -5.50598
-0.622108 -7.67526 -5.48843
-0.613756 -7.58004 -5.53688
-0.406392 -7.86765 -5.48898
-0.630308 -7.51976 -5.44086
-0.572282 -7.70835 -5.46643
-0.497444 -7.72495 -5.46251
-0.497444 -7.72495 -5.46251
-0.497541 -7.74168 -5.46191
-0.464455 -7.81583 -5.40012
-0.547407 -7.64481 -5.42032
-0.547253 -7.58223 -5.42113
-0.547253 -7.58223 -5.42113
-0.306933 -8.30768 -5.56389
-0.306933 -8.30768 -5.56389
0.0745461 -8.25845 -5.35428
0.331609 -8.28736 -5.31937
-0.373233 -8.07318 -5.53287
-0.26504 -8.21163 -5.57394
-0.157629 -8.24402 -5.49042
-0.257194 -7.98349 -5.41499
-0.215538 -7.94064 -5.36053
-0.165774 -8.07106 -5.40131
-0.0829152 -8.24324 -5.44357
-0.0579396 -8.16674 -5.37721
-0.0746231 -8.08332 -5.38623
-0.140833 -8.01693 -5.3979
-0.132677 -7.975 -5.40282
-0.198943 -7.96601 -5.37207
-0.0414644 -8.0249 -5.38802
-0.0745845 -7.88218 -5.34442
-0.182363 -7.78191 -5.34784
-0.132661 -7.83219 -5.36086
-0.132661 -7.83219 -5.36086
-0.182497 -7.69835 -5.34705
-0.107828 -7.69839 -5.34212
-0.165874 -7.6485 -5.35873
-0.0331963 -7.56875 -5.33064
-0.0164243 -8.07895 -5.37039
0.0501175 -8.12059 -5.37523
0.14087 -8.19907 -5.30142
0.107764 -8.124 -5.31456
0.14933 -8.2398 -5.24535
0.0330847 -8.05719 -5.31943
0.174083 -8.216 -5.30353
0.173737 -8.1282 -5.30144
0.314949 -8.15694 -5.26595
0.306655 -8.211 -5.26018
0.29019 -8.06503 -5.28503
0.281736 -8.07345 -5.2784
0.281736 -8.07345 -5.2784
0.27347 -8.03164 -5.27289
0.0415916 -7.86527 -5.32632
0.0911332 -7.87329 -5.30284
0.0163895 -7.63574 -5.32835
0.348213 -7.72694 -5.26833
-1.05418 -7.49049 -5.70259
-0.962714 -7.39424 -5.68896
-0.962714 -7.39424 -5.68896
-1.11189 -7.46456 -5.65738
-1.04537 -7.32163 -5.60483
-1.12021 -7.26319 -5.6087
-1.12015 -7.14612 -5.60905
-1.07036 -7.12961 -5.60808
-0.995551 -7.13691 -5.54015
-0.995551 -7.13691 -5.54015
-0.920929 -7.36222 -5.51373
-0.846152 -7.45402 -5.50954
-0.870924 -7.30313 -5.48611
-0.846094 -7.25353 -5.50983
-0.846094 -7.25353 -5.50983
-1.11178 -7.05857 -5.61516
-1.13689 -6.94575 -5.61786
-1.10338 -6.97088 -5.6217
-1.02036 -6.80369 -5.60156
-0.829623 -7.06651 -5.56329
-0.929129 -6.79017 -5.5298
-0.762877 -7.42867 -5.49103
-0.746467 -7.33705 -5.50153
-0.721854 -7.38283 -5.49603
-0.895763 -7.16917 -5.46902
-0.771406 -7.07708 -5.44139
-0.771406 -7.07708 -5.44139
-0.688366 -7.22757 -5.44279
-0.522497 -7.2271 -5.40198
-0.447831 -7.26895 -5.41168
-0.43954 -7.18436 -5.33951
-0.680086 -6.9392 -5.42735
-0.57221 -6.95526 -5.38231
-0.497503 -6.96326 -5.35657
-0.51413 -7.02188 -5.36595
-0.464384 -7.08509 -5.40038
-0.572158 -6.80498 -5.3826
-0.398075 -6.78026 -5.3894
-1.06197 -6.66564 -5.59308
-1.07885 -6.58314 -5.64383
-1.02065 -6.5823 -5.59991
-1.11235 -6.43503 -5.80402
-1.11194 -6.52467 -5.65701
-0.887686 -6.74505 -5.5798
-0.954194 -6.66584 -5.58974
-1.11232 -6.30902 -5.76154
-1.11237 -6.21363 -5.80394
-1.1205 -6.26649 -5.71365
-1.1205 -6.26649 -5.71365
-1.02091 -6.19999 -5.74756
-1.03726 -6.24545 -5.69479
-1.04563 -6.19943 -5.68848
-1.10388 -6.11342 -5.81088
-1.07071 -6.16272 -5.74858
-1.01234 -6.15762 -5.69104
-0.912831 -6.23705 -5.6819
-0.904518 -6.13679 -5.67316
-0.829792 -6.17837 -5.66185
-0.854569 -6.0195 -5.66634
-0.896199 -6.06971 -5.65784
-0.788246 -6.06078 -5.61281
-0.788246 -6.06078 -5.61281
-0.563995 -6.49842 -5.51445
-0.647461 -6.01854 -5.57433
-0.464608 -6.70554 -5.39911
-0.431195 -6.67167 -5.38776
-0.563919 -6.39487 -5.32458
0.0995642 -6.81824 -5.61758
-0.315094 -7.46931 -5.39035
-0.323403 -6.75524 -5.38449
0.331703 -7.4573 -5.36165
0.265328 -7.35223 -5.33075
0.2239 -7.27204 -5.28163
0.132767 -7.06841 -5.35323
0.132569 -7.08032 -5.31029
0.140942 -6.96835 -5.35823
0.182531 -7.08519 -5.35191
-0.373069 -6.73833 -5.38626
-0.339926 -6.71326 -5.37341
-0.315131 -6.65493 -5.39011
-0.265394 -6.71412 -5.40981
-0.116096 -6.68813 -5.35117
-0.165972 -6.56436 -5.44229
-0.0498792 -6.65535 -5.38161
-0.149144 -6.40489 -5.39203
-0.0497217 -6.47997 -5.38243
-0.107869 -6.43006 -5.3985
-0.23223 -6.055 -5.45381
-0.0580544 -6.30975 -5.43956
0.0249029 -6.73893 -5.37721
0.049797 -6.65527 -5.37344
0.0913091 -6.62191 -5.36665
0.0578422 -6.42581 -5.37778
0.199029 -6.57094 -5.30016
0.199029 -6.57094 -5.30016
0.265311 -6.63059 -5.37242
0.340013 -6.58477 -5.36755
0.340013 -6.58477 -5.36755
-0.0165482 -6.25955 -5.42635
0.115852 -6.2952 -5.29802
0.116277 -6.26347 -5.4052
0.174016 -6.35453 -5.34489
0.240525 -6.30085 -5.37685
0.240525 -6.30085 -5.37685
0.174195 -6.20902 -5.38788
0.290383 -6.26727 -5.36969
0.290383 -6.26727 -5.36969
0.256882 -6.13822 -5.38695
0.23249 -6.17555 -5.38722
-5.54525 -5.88685 -6.42221
-5.29539 -5.77798 -6.38844
-5.49094 -5.35977 -6.71622
-5.15342 -5.92764 -6.32594
-5.15342 -5.92764 -6.32594
-5.06159 -5.92329 -6.30022
-5.54502 -4.73965 -7.00993
-5.62152 -4.61946 -7.13269
-5.42822 -4.79811 -6.99419
-5.42822 -4.79811 -6.99419
-5.07936 -4.73229 -7.0591
-5.02087 -4.73637 -7.0444
-4.93737 -4.79484 -7.02599
-5.58544 -4.97313 -6.93164
-5.48549 -4.92699 -6.9249
-5.61944 -4.8647 -6.97055
-4.52938 -4.89981 -7.02536
-4.63389 -4.58594 -7.42609
-4.82957 -4.79967 -7.06752
-4.77961 -4.81623 -7.05983
-4.77961 -4.81623 -7.05983
-4.88185 -4.57129 -7.25708
-4.84088 -4.58862 -7.3069
-4.64051 -4.68916 -7.28011
-4.64619 -4.87498 -7.04144
-4.54715 -4.84245 -7.11903
-4.69115 -4.58085 -7.34364
-4.31288 -4.92539 -7.0309
-4.25671 -4.78518 -7.21869
-5.61232 -4.37157 -7.06117
-5.52962 -4.43504 -7.10648
-5.38001 -4.35166 -7.13562
-5.43839 -4.34337 -7.13638
-5.32251 -4.21819 -7.18314
-5.3962 -4.27603 -7.10298
-5.33012 -4.2931 -7.13559
-5.28867 -4.16745 -7.14325
-5.57787 -3.99394 -6.979
-5.40393 -4.02848 -7.0547
-5.40393 -4.02848 -7.0547
-5.28008 -4.10458 -7.12837
-5.28007 -4.03756 -7.12849
-5.32106 -3.9952 -7.07805
-5.32106 -3.9952 -7.07805
-5.27035 -3.91929 -7.01482
-4.99125 -4.42119 -7.33405
-4.92436 -4.44627 -7.32578
-4.92437 -4.49664 -7.3257
-5.00714 -4.253 -7.28076
-5.19742 -4.09668 -7.17313
-5.23065 -3.98774 -7.17114
-5.18138 -4.0093 -7.22757
-4.9877 -3.76069 -7.04602
-5.27576 -3.66166 -6.77596
-5.325 -3.65708 -6.74228
-5.63693 -3.52465 -6.43431
-5.50382 -3.45769 -6.43034
-5.40509 -3.52534 -6.50789
-5.38008 -3.48366 -6.50444
-5.43701 -3.45771 -6.42255
-5.37027 -3.41567 -6.39163
-5.43633 -3.4363 -6.35847
-5.58409 -3.28884 -6.2251
-5.6343 -3.32237 -6.24516
-5.5429 -3.31386 -6.27727
-5.5429 -3.31386 -6.27727
-5.50171 -3.33528 -6.28384
-5.47612 -3.27213 -6.22398
-5.44357 -3.31417 -6.2677
-5.23402 -3.69094 -6.77098
-5.03636 -3.61323 -6.94823
-5.05006 -3.55244 -6.7041
-4.97379 -3.47636 -6.59605
-4.90707 -3.43025 -6.58743
-5.2377 -3.37432 -6.42963
-5.19554 -3.34888 -6.38205
-5.17879 -3.29016 -6.37265
-5.17879 -3.29016 -6.37265
-5.14431 -3.2102 -6.27744
-5.04611 -3.29052 -6.39653
-5.06997 -3.20202 -6.30846
-4.97079 -3.25273 -6.35098
-5.0207 -3.13135 -6.35034
-4.97915 -3.1732 -6.35896
-4.85809 -4.47188 -7.35905
-4.79131 -4.42997 -7.34999
-4.81702 -4.21686 -7.40945
-4.88188 -4.29061 -7.25691
-4.63549 -4.02995 -7.57484
-4.82286 -3.80406 -7.19983
-4.64756 -3.76204 -7.19131
-4.55755 -3.84739 -7.30322
-4.35109 -4.22656 -7.48602
-4.518 -4.08382 -7.50208
-4.31836 -4.07579 -7.52969
-4.23421 -4.06698 -7.4696
-4.23421 -4.06698 -7.4696
-4.248 -3.81277 -7.18245
-4.49939 -3.6881 -7.32324
-4.76942 -3.62978 -6.90469
-4.74157 -3.42669 -6.65538
-4.74157 -3.42669 -6.65538
-4.59347 -3.2732 -6.78807
-4.63408 -3.25134 -6.69537
-4.65883 -3.22605 -6.67781
-4.70016 -3.26782 -6.66292
-4.51895 -3.53714 -6.82718
-4.45221 -3.45347 -6.81837
-4.3775 -3.48723 -6.83604
-4.3775 -3.48723 -6.83604
-4.22908 -3.67678 -6.96942
-4.1875 -3.58047 -6.96306
-4.1875 -3.58047 -6.96306
-4.29486 -3.50443 -6.89452
-4.29486 -3.50443 -6.89452
-4.19494 -3.48786 -6.91743
-5.57529 -3.22996 -6.1888
-5.45665 -3.09933 -6.02669
-5.51443 -3.00299 -5.98468
-5.40816 -3.19612 -6.10974
-5.36721 -3.14215 -6.16031
-5.34974 -3.16687 -6.09549
-5.39026 -3.07416 -6.01677
-5.39026 -3.07416 -6.01677
-5.32369 -3.16194 -6.00781
-5.26801 -3.21776 -6.19554
-5.21811 -3.16344 -6.1962
-5.23333 -3.03294 -6.07887
-5.2667 -3.09168 -6.09824
-5.2667 -3.09168 -6.09824
-2.79296 -4.54353 -7.58629
-2.68468 -4.50992 -7.58359
-4.11532 -3.92237 -7.24873
-3.8996 -3.99026 -7.33
-3.95608 -3.77495 -7.14125
-3.64296 -3.98429 -7.53363
-3.64296 -3.98429 -7.53363
-3.43564 -3.90156 -7.65103
-3.76547 -3.80956 -7.24789
-3.76547 -3.80956 -7.24789
-3.93145 -3.72076 -7.17993
-3.93145 -3.72076 -7.17993
-3.85497 -3.28804 -7.02899
-3.79696 -3.27997 -7.05585
-3.73914 -3.37676 -7.1037
-3.72241 -3.43949 -7.09413
-3.4681 -3.32165 -7.54289
-3.6562 -3.25976 -7.14084
-3.68921 -3.14207 -7.09579
-3.69732 -3.05828 -7.09099
-3.69732 -3.05828 -7.09099
-3.63909 -3.10834 -7.0744
-3.63909 -3.10834 -7.0744
-3.6145 -3.15081 -7.13496
-3.63068 -3.06673 -7.08104
-4.01228 -3.10711 -6.93179
-4.01228 -3.10711 -6.93179
-3.91231 -3.17412 -6.92455
-2.68493 -4.40131 -7.62613
-3.08508 -3.66659 -7.60727
-3.18372 -3.48039 -7.42421
-3.3647 -3.10931 -7.14107
-3.30591 -3.01656 -7.0835
-3.21491 -3.06326 -7.15443
-3.19007 -3.10947 -7.1718
-3.06549 -3.12646 -7.20207
-3.12294 -3.05903 -7.1425
-3.03125 -3.09212 -7.08475
-2.81862 -3.47831 -7.66716
-2.80223 -3.5375 -7.69958
-2.74377 -3.41988 -7.68372
-2.9341 -3.34256 -7.47176
-2.98328 -3.31231 -7.37408
-2.95827 -3.25777 -7.37032
-2.9168 -3.28377 -7.40681
-2.9168 -3.28377 -7.40681
-2.89995 -3.14893 -7.37592
-2.81807 -3.34749 -7.56015
-2.75973 -3.23462 -7.58783
-2.73536 -3.35716 -7.69034
-2.69308 -3.24741 -7.62125
-2.66553 -3.0683 -7.22209
-4.21043 -2.87144 -6.77757
-4.48013 -2.76363 -6.33174
-5.62164 -2.9985 -5.94455
-5.58725 -2.93101 -5.86327
-5.6211 -2.91876 -5.90236
-5.63773 -2.97292 -5.88957
-5.57183 -2.99003 -5.93684
-5.538 -2.94786 -5.88304
-5.538 -2.94786 -5.88304
-5.40503 -2.91451 -5.87921
-5.33078 -2.92319 -5.91826
-5.52829 -2.92211 -5.78426
-5.32891 -2.82202 -5.77115
-5.42912 -2.80555 -5.81996
-5.44449 -2.80074 -5.72415
-5.20852 -2.99134 -6.09705
-5.16509 -2.71473 -5.94431
-5.24557 -2.56721 -5.7534
-5.20936 -2.37383 -5.51102
-5.47398 -2.33165 -5.44945
-5.41564 -2.35663 -5.43532
-4.97607 -2.26918 -5.4231
-5.36654 -2.24428 -5.47697
-5.21769 -2.06937 -5.50456
-5.06043 -2.23635 -5.52434
-5.05156 -2.08172 -5.48895
-5.04276 -2.04391 -5.47577
-5.14284 -1.70213 -5.50237
-5.54866 -2.09394 -5.45258
-5.46605 -2.06055 -5.45349
-5.48991 -2.00185 -5.39561
-5.3825 -2.10638 -5.4375
-5.32468 -2.19408 -5.4655
-5.37414 -1.99376 -5.42967
-5.4239 -2.00209 -5.42921
-5.51539 -1.61423 -5.4411
-5.49889 -1.67674 -5.45312
-5.45707 -1.54741 -5.42683
-5.45707 -1.54741 -5.42683
-5.40754 -1.58096 -5.44041
-5.29105 -1.50988 -5.4109
-5.23423 -2.02321 -5.44701
-5.19187 -1.91903 -5.44676
-5.19187 -1.91903 -5.44676
-5.01788 -2.23192 -5.45738
-5.02592 -1.8855 -5.43016
-5.19197 -1.79787 -5.44617
-5.2419 -1.78543 -5.46732
-5.22528 -1.69357 -5.45737
-5.23344 -1.55597 -5.45204
-5.10876 -1.54342 -5.42804
-4.94321 -1.63947 -5.45404
-4.7955 -2.37035 -5.58659
-4.79496 -2.30752 -5.54494
-4.72853 -2.30748 -5.53552
-4.72853 -2.30748 -5.53552
-4.73675 -2.34083 -5.52975
-4.70408 -2.43291 -5.5739
-4.6707 -2.37452 -5.5629
-4.6707 -2.37452 -5.5629
-4.59618 -2.0365 -5.57294
-4.47964 -1.5024 -5.54332
-4.96011 -1.38084 -5.47673
-5.52295 -1.4847 -5.39391
-5.63008 -1.30523 -5.35352
-5.4898 -1.2595 -5.39629
-5.53117 -1.30957 -5.38817
-5.36566 -1.4807 -5.41452
-5.36566 -1.4807 -5.41452
-5.30762 -1.43894 -5.41299
-5.28279 -1.35143 -5.41696
-5.28279 -1.35143 -5.41696
-5.41515 -1.24285 -5.39305
-5.50677 -0.992874 -5.40402
-5.55622 -0.925762 -5.40546
-5.57322 -0.796625 -5.41298
-5.48978 -0.792404 -5.39639
-5.36567 -0.942667 -5.41447
-5.45642 -0.975858 -5.38548
-5.3161 -0.959428 -5.42822
-5.29932 -1.02603 -5.4194
-5.22521 -1.25979 -5.45789
-5.1506 -1.25561 -5.45418
-5.18373 -1.02622 -5.45204
-5.25846 -1.0178 -5.45496
-5.05922 -1.04288 -5.4416
-5.00966 -0.926123 -5.4632
-5.18426 -0.438083 -5.49405
-5.08448 -0.429695 -5.48822
-5.08448 -0.429695 -5.48822
-4.95235 -0.671749 -5.5247
-4.93601 -0.488285 -5.5582
-4.98554 -0.550736 -5.52231
-4.90294 -0.438071 -5.54533
-5.11777 -0.300472 -5.49968
-5.12617 -0.0166358 -5.49278
-4.99376 -0.29628 -5.51648
-5.06841 -0.304531 -5.52002
-4.94387 -0.150173 -5.50958
-5.58953 -0.667343 -5.40205
-5.47339 -0.663167 -5.40778
-5.62254 -0.546357 -5.4006
-5.49836 -0.488002 -5.38834
-5.49847 -0.438117 -5.45575
-5.37419 -0.696569 -5.42943
-5.39896 -0.621535 -5.42586
-5.3325 -0.379607 -5.41689
-5.59795 -0.296147 -5.41769
-5.62258 -0.262683 -5.35484
-5.56476 -0.116817 -5.42032
-5.59797 -0.0417093 -5.41757
-5.59797 -0.0417093 -5.41757
-5.4979 -0.116787 -5.39122
-5.48214 -0.0500712 -5.44405
-5.34156 -0.283663 -5.47377
-5.2999 -0.246099 -5.46103
-5.29173 -0.141823 -5.46654
-5.29173 -0.141823 -5.46654
-5.10056 -0.646593 -5.43369
-5.17522 -0.50482 -5.4371
-5.23349 -0.158529 -5.45171
-4.64484 -1.25995 -5.4754
-4.20754 -1.09379 -5.6926
-4.31497 -0.868244 -5.65219
-4.71012 -1.36818 -5.37961
-4.71012 -1.36818 -5.37961
-4.76094 -0.830252 -5.47055
-4.76094 -0.830252 -5.47055
-4.84418 -0.592404 -5.48857
-4.72911 -0.396382 -5.5769
-4.79535 -0.434003 -5.58757
-4.69586 -0.667689 -5.57965
-4.56347 -0.609393 -5.60263
-4.63792 -0.550762 -5.6077
-4.63792 -0.550762 -5.6077
-4.52242 -0.492916 -5.60855
-4.60503 -0.404655 -5.60822
-4.87744 -0.325384 -5.50021
-4.82047 -0.258722 -5.58994
-4.87038 -0.217012 -5.61142
-4.78724 -0.363034 -5.59258
-4.74547 -0.292121 -5.56596
-4.76241 -0.166836 -5.58842
-4.58895 -0.338125 -5.66231
-4.58895 -0.338125 -5.66231
-4.58892 -0.246274 -5.66248
-4.58892 -0.246274 -5.66248
-4.67912 -0.200308 -5.5706
-4.67912 -0.200308 -5.5706
-4.53966 -0.0292366 -5.70422
-4.5639 -0.0583448 -5.64485
-4.40661 -0.626154 -5.67828
-4.50524 -0.563413 -5.60216
-4.44771 -0.547133 -5.69458
-4.46468 -0.455056 -5.67992
-4.20138 -0.142043 -5.90108
-4.46496 -0.333826 -5.72296
-3.65534 -2.9784 -7.04239
-3.73644 -2.89285 -6.8082
-3.54616 -2.90221 -6.9352
-3.04787 -2.93726 -7.09496
-3.08911 -2.91201 -7.05948
-2.85708 -2.94223 -7.20047
-2.98972 -2.92908 -7.13651
-3.01378 -2.7689 -6.99156
-2.79099 -2.96378 -7.26765
-2.84813 -2.61069 -7.12221
-2.7312 -2.38826 -7.06232
-3.33734 -2.89758 -6.84882
-3.25294 -2.82548 -6.72527
-3.16302 -2.74734 -6.90047
-3.04714 -2.80187 -6.94484
-3.22762 -2.54876 -6.6353
-3.38319 -2.56364 -6.35002
-2.9884 -2.55921 -6.93135
-2.96308 -2.41651 -6.88547
-2.83806 -2.25721 -6.85997
-2.82976 -2.3956 -6.86597
-3.07759 -2.20083 -6.60684
-3.24091 -1.94834 -6.23138
-3.09311 -1.9495 -6.46924
-3.24931 -1.63903 -6.24687
-3.29129 -1.56812 -6.29471
-3.09267 -1.71921 -6.4278
-3.06755 -1.79867 -6.4104
-2.97789 -2.10942 -6.64223
-2.86117 -2.0424 -6.61124
-2.77141 -2.24051 -6.86475
-2.77141 -2.24051 -6.86475
-2.64666 -2.1865 -6.8815
-2.70481 -2.15678 -6.85461
-2.82779 -1.91704 -6.61407
-2.82779 -1.91704 -6.61407
-2.944 -2.0211 -6.54546
-2.86995 -1.51113 -6.66833
-4.13173 -2.27884 -5.5842
-3.58001 -2.32762 -6.04961
-4.02035 -1.88873 -6.06401
-3.99932 -1.90757 -5.62126
-4.04963 -1.81183 -5.67029
-4.07426 -1.67392 -5.64581
-3.52163 -2.06436 -6.03493
-3.42225 -1.9433 -6.06943
-3.50466 -1.95558 -5.98288
-3.60448 -1.55858 -6.01196
-3.50418 -1.81753 -5.92705
-3.51332 -1.6758 -6.04102
-3.39786 -1.59266 -6.12872
-3.37295 -1.98938 -6.11014
-3.35704 -1.82694 -6.20636
-3.35704 -1.82694 -6.20636
-3.37304 -1.68457 -6.15376
-3.44022 -1.08701 -6.22595
-3.44022 -1.08701 -6.22595
-3.56508 -0.840384 -6.25102
-3.8415 -0.434997 -6.47981
-3.98936 -0.133685 -6.29784
-3.98936 -0.133685 -6.29784
-3.86704 -0.30961 -6.53922
-3.83258 -0.167261 -6.4229
-3.80728 -0.0461829 -6.37669
-3.80728 -0.0461829 -6.37669
-3.44353 -0.673736 -6.61894
-3.61722 -0.606529 -6.50349
-3.74203 -0.158988 -6.51468
-3.73319 -0.0670205 -6.45724
-3.58465 -0.125504 -6.59036
-3.65048 -0.0585771 -6.50124
-3.55091 -0.0920658 -6.53653
-3.23379 -1.4347 -6.38474
-3.1592 -1.41808 -6.42329
-3.0597 -1.42669 -6.50182
-3.10132 -1.42633 -6.46379
-3.06805 -1.47676 -6.45151
-3.09377 -1.3139 -6.55336
-3.12743 -0.899755 -6.61491
-3.17785 -0.778486 -6.67839
-3.25085 -1.02901 -6.43619
-3.24243 -0.978671 -6.42078
-3.23367 -1.09581 -6.38545
-3.36688 -0.85332 -6.40451
-3.18465 -1.05423 -6.48282
-3.16883 -0.966599 -6.57828
-3.11011 -1.06273 -6.52095
-2.97773 -1.32247 -6.59915
-2.90312 -1.46916 -6.63742
-2.90312 -1.46916 -6.63742
-2.97799 -1.26398 -6.64162
-2.92015 -1.31011 -6.68898
-2.96924 -1.47718 -6.59161
-2.92834 -1.07581 -6.68364
-2.78808 -1.03855 -6.85263
-2.78808 -1.03855 -6.85263
-3.03886 -0.305702 -6.99475
-2.9804 -0.322436 -6.97958
-2.92246 -0.259805 -7.01996
-2.92294 -0.159305 -7.08319
-2.7235 -0.205325 -7.1525
-2.79804 -0.155017 -7.10059
-2.78109 -0.0922018 -7.04846
-2.67343 -0.167669 -7.13075
-3.22767 -0.724219 -6.6792
-3.26951 -0.678052 -6.69144
-3.16295 -0.385283 -6.90088
-3.36863 -0.656922 -6.593
-3.34561 -0.297277 -6.84312
-3.1629 -0.301575 -6.90117
-3.17087 -0.25117 -6.85306
-3.1381 -0.171749 -6.91838
-3.1381 -0.171749 -6.91838
-3.79439 -1.12781 -5.88507
-3.96846 -0.814444 -5.85391
-4.03396 -0.906153 -5.76593
-3.68755 -1.28692 -6.00966
-3.56274 -1.4248 -5.98483
-3.68758 -0.96937 -6.00954
-3.68758 -0.96937 -6.00954
-3.7453 -1.00275 -5.96921
-3.64607 -0.940243 -6.0032
-3.53108 -1.0448 -6.13255
-3.49782 -1.12442 -6.17911
-4.01051 -0.74773 -5.909
-2.47105 -5.64797 -6.72075
-2.47105 -5.64797 -6.72075
-2.48756 -5.71467 -6.70953
-2.50362 -5.70917 -6.61359
-2.55241 -5.96595 -6.43112
-2.47763 -5.87843 -6.44838
-2.21158 -5.96212 -6.42148
-1.92972 -5.36662 -6.61813
-1.92972 -5.36662 -6.61813
-1.7708 -5.6487 -6.40404
-1.5374 -5.55486 -6.27043
-1.55423 -5.50555 -6.32208
-1.55423 -5.50555 -6.32208
-1.48744 -5.56726 -6.2486
-1.48744 -5.56726 -6.2486
-1.58675 -5.95871 -6.13046
-1.42846 -5.99882 -6.0007
-1.37004 -5.97723 -5.94308
-1.48734 -5.7293 -6.16325
-1.31216 -5.9904 -5.98253
-1.22094 -5.66094 -6.03152
-1.17095 -5.71012 -5.96735
-1.16226 -5.94224 -5.82581
-1.17945 -5.61099 -6.04591
-2.61821 -4.43065 -7.616
-2.54313 -4.39717 -7.61195
-2.55085 -4.46313 -7.49971
-2.55085 -4.46313 -7.49971
-2.31003 -4.39803 -7.68314
-2.20174 -4.32697 -7.70198
-2.13485 -4.30555 -7.64882
-2.61822 -3.15524 -7.61592
-2.5095 -3.02033 -7.54988
-2.5095 -3.02033 -7.54988
-2.47635 -3.06268 -7.59473
-1.52624 -4.1387 -7.69777
-1.51675 -4.33702 -7.39268
-1.3419 -4.2291 -7.46484
-1.21742 -4.13811 -7.60017
-1.24196 -4.27082 -7.45584
-1.24203 -4.21249 -7.49857
-1.36749 -4.11298 -7.63121
-0.565151 -4.97431 -6.25768
-0.557769 -4.50918 -6.95329
-0.557677 -4.52534 -6.88995
-1.12942 -5.6766 -5.95383
-0.963142 -5.72608 -5.89296
-0.971556 -5.65073 -5.88646
-1.03766 -5.95454 -5.79906
-0.96296 -5.88798 -5.8154
-0.954696 -6.0004 -5.77849
-0.879775 -5.92069 -5.75348
-0.946286 -5.88745 -5.78484
-0.863271 -5.83726 -5.76454
-0.887911 -5.87353 -5.66357
-0.846503 -5.94512 -5.71333
-0.830052 -5.89568 -5.76656
-0.821512 -5.84492 -5.70999
-0.821512 -5.84492 -5.70999
-0.838521 -5.75785 -5.75983
-0.780057 -5.7412 -5.74544
-0.846627 -5.71589 -5.75517
-1.10505 -5.46881 -6.0536
-1.05476 -5.47237 -5.99124
-1.05476 -5.47237 -5.99124
-1.01319 -5.4515 -5.98474
-1.10482 -5.29466 -6.1618
-1.06317 -5.3191 -6.09154
-1.09653 -5.32746 -6.10338
-0.971778 -5.42611 -5.97046
-0.91317 -5.53423 -5.91412
-0.921486 -5.6004 -5.86562
-0.730177 -5.97708 -5.59619
-0.730142 -5.87267 -5.59642
-0.597318 -5.88847 -5.52641
-0.755416 -5.67079 -5.80368
-1.08842 -5.23243 -6.19362
-0.132523 -5.66446 -5.59294
-0.182373 -5.56507 -5.65712
-0.0912721 -5.60668 -5.64124
0.141005 -5.80142 -5.50519
0.141184 -5.30941 -5.89833
0.190956 -5.25488 -5.87578
0.190956 -5.25488 -5.87578
0.332099 -5.30505 -5.85951
-0.0164404 -5.36189 -5.76306
0.0746314 -5.90409 -5.39661
0.0995179 -5.85503 -5.45576
-0.149421 -5.011 -6.13585
-0.0415948 -4.93272 -6.22223
0.141252 -5.18117 -6.00378
-1.06716 -4.17983 -7.57018
-1.00018 -4.229 -7.45374
-0.832864 -4.39359 -7.13803
-0.791538 -4.26128 -7.32198
-1.10905 -4.09226 -7.64038
-0.950553 -4.08793 -7.61555
-0.867455 -3.98348 -7.63641
-0.90055 -4.02951 -7.63591
-0.733322 -4.2115 -7.36218
-0.649525 -4.40974 -7.05226
-0.582886 -4.36829 -7.09889
-0.691585 -4.28608 -7.27022
-0.658469 -4.11189 -7.46335
-0.533579 -3.92422 -7.57805
-0.225129 -4.01787 -7.68471
-0.141819 -4.02657 -7.68492
-0.0916296 -4.10873 -7.51477
0.133397 -4.11279 -7.47791
0.250229 -4.06004 -7.65019
0.25016 -3.09028 -7.64989
-2.41804 -2.93738 -7.64394
-2.39292 -2.98314 -7.59677
-2.33465 -2.84881 -7.57985
-2.45071 -2.62588 -7.49231
-2.27532 -2.5583 -7.41614
-2.60707 -2.52709 -7.16273
-2.53196 -2.45175 -7.15927
-2.60645 -2.39259 -7.07861
-2.46496 -2.30894 -7.1001
-2.39096 -2.37688 -7.2433
-2.32429 -2.38561 -7.27682
-2.40697 -2.37216 -7.14761
-2.22655 -2.89554 -7.66342
-2.22655 -2.89554 -7.66342
-2.14311 -2.85348 -7.64342
-2.16752 -2.67244 -7.54163
-2.00164 -2.86252 -7.7141
-2.05915 -2.70184 -7.53926
-1.91787 -2.66876 -7.60886
-2.16686 -2.41989 -7.41452
-2.00091 -2.60139 -7.56584
-2.00091 -2.60139 -7.56584
-1.97597 -2.52593 -7.58339
-2.04216 -2.54195 -7.47304
-2.07555 -2.50432 -7.48534
-2.07555 -2.50432 -7.48534
-2.6138 -2.27442 -6.92491
-2.46465 -2.04473 -7.04356
-2.27385 -2.07476 -7.16975
-2.29918 -2.08328 -7.22993
-2.31527 -2.07856 -7.1339
-2.31528 -2.087 -7.13373
-2.24995 -2.23926 -7.37064
-2.00004 -2.07187 -7.37483
-1.95058 -2.21923 -7.50165
-2.26575 -2.06665 -7.21812
-2.15784 -2.10482 -7.3008
-2.06623 -1.92453 -7.2863
-1.91637 -1.89526 -7.31305
-2.55568 -2.16175 -6.97348
-2.57177 -1.63764 -6.87718
-1.85098 -2.50098 -7.59955
-1.79264 -2.26598 -7.59761
-1.79264 -2.26598 -7.59761
-1.86721 -2.12277 -7.50319
-1.65955 -2.14056 -7.66154
-2.36572 -0.980808 -7.19722
-2.36572 -0.980808 -7.19722
-2.33222 -1.10661 -7.18576
-2.38225 -0.888639 -7.18596
-2.39908 -0.771369 -7.23857
-1.98372 -0.964731 -7.47186
-2.25754 -0.997653 -7.22337
-2.24079 -1.0019 -7.21405
-2.29999 -0.159373 -7.37822
-2.59892 -0.23472 -7.21156
-2.54098 -0.11315 -7.2735
-2.54071 -0.134222 -7.20924
-2.00933 -0.201127 -7.58119
0.333398 -2.66651 -7.69168
0.20005 -2.46911 -7.71414
0.258468 -2.24232 -7.69766
0.225126 -2.18358 -7.69592
0.275109 -2.16227 -7.64554
0.275109 -2.16227 -7.64554
0.350259 -2.20449 -7.68314
0.300194 -2.1077 -7.6485
0.250167 -1.93132 -7.64981
0.325193 -1.80955 -7.6445
-4.31593 2.44958 -10.4707
-2.64428 2.32952 -7.78233
-1.53733 1.42953 -8.42853
-1.53738 1.48057 -8.42805
-1.20281 1.15174 -8.28407
-2.37004 2.11663 -7.97495
-1.90431 1.99236 -8.29324
-2.00316 2.14214 -8.02544
-2.00316 2.14214 -8.02544
-2.46939 2.35891 -7.79016
-2.47734 2.43869 -7.74257
-2.47734 2.43869 -7.74257
-2.36925 2.48501 -7.78232
-2.28606 2.50233 -7.8703
-2.29425 2.5314 -7.82129
-2.3353 2.53125 -7.81712
-2.29403 2.6988 -7.77879
-2.3188 2.63999 -7.76225
-2.17801 2.3601 -7.95319
-2.16167 2.25967 -8.00688
-2.1447 2.40645 -7.94016
-2.13633 2.46937 -7.94633
-2.13633 2.46937 -7.94633
-2.05304 2.3225 -7.96878
-2.06094 2.37683 -7.9218
-2.03385 2.50303 -7.952
-2.19393 2.68244 -7.8143
-2.16853 2.64018 -7.75426
-2.10172 2.63593 -7.73717
-2.10172 2.63593 -7.73717
-2.06948 2.64554 -7.92924
-2.06844 2.65268 -7.72417
-2.01887 2.74562 -7.82271
-1.87144 1.8077 -8.40146
-1.53725 1.53087 -8.42902
-1.68751 1.86673 -8.37352
-1.58752 1.71461 -8.34181
-1.71948 2.23473 -8.0314
-1.42018 1.75773 -8.43304
-1.25305 1.76185 -8.39244
-1.21885 1.96645 -8.10312
-1.77113 2.28423 -7.96455
-1.88553 2.55691 -7.84459
-1.78555 2.46908 -7.879
-1.62759 2.25998 -8.01752
-1.65221 2.44414 -7.91521
-1.70172 2.56081 -7.77396
-1.70172 2.56081 -7.77396
-1.59335 2.50276 -7.85793
-1.53539 2.46059 -7.83891
-1.52695 2.51543 -7.88873
-1.71011 2.64881 -7.76779
-1.78492 2.69539 -7.79559
-1.64304 2.64469 -7.75928
-1.50233 2.33128 -7.99088
-1.50996 2.42284 -7.83736
-1.4023 2.45317 -8.02487
-1.43494 2.57808 -7.83232
-1.25189 2.3356 -7.99506
-1.30959 2.62395 -7.76329
-0.651974 0.689938 -8.58136
-0.501399 0.715478 -8.67294
-0.985558 0.332126 -8.30083
-1.01105 0.900109 -8.49649
-0.936008 1.33769 -8.54861
-0.618652 0.87537 -8.69025
-0.618652 0.87537 -8.69025
-0.551718 0.875399 -8.67979
-0.53497 1.04354 -8.62724
-0.61839 1.25355 -8.49837
-1.11945 1.14784 -8.37082
-1.10274 1.47193 -8.46912
-0.267737 0.261003 -8.8756
-0.168205 0.278098 -8.92601
-0.217383 0.362009 -8.826
-0.166794 0.143087 -8.72034
-0.376364 0.517761 -8.80812
-0.376364 0.517761 -8.80812
-0.192307 0.509385 -8.8073
-0.183974 0.677685 -8.72743
0.0333645 0.151949 -8.97684
0.0334893 0.227544 -8.97752
0.30948 0.126444 -8.89015
0.234226 0.202171 -8.95929
0.167182 0.051032 -8.8483
0.351143 0.252587 -8.73357
0.0501664 0.572599 -8.79691
0.0668939 0.656652 -8.77249
0.334197 0.715088 -8.44504
-0.16718 0.816526 -8.71812
0.0835644 0.83313 -8.57091
0.309223 0.769989 -8.53427
-0.267386 1.21982 -8.44974
-0.267386 1.21982 -8.44974
-0.384307 1.35438 -8.44725
-0.0668567 1.26991 -8.31076
-0.183719 1.49658 -8.22314
-0.0668123 1.49653 -8.2045
0.133646 1.05143 -8.37804
0.133646 1.05143 -8.37804
0.300644 1.03438 -8.2516
0.267168 1.30312 -8.14342
-0.810552 1.5563 -8.47887
-1.0695 1.63599 -8.47011
-0.876572 1.65671 -8.38663
-0.777341 1.58563 -8.42184
-0.935531 1.77422 -8.29948
-0.868695 1.71962 -8.33195
-0.785417 1.72428 -8.43233
-0.833967 2.12658 -8.14798
-0.743434 1.62739 -8.36217
-0.734926 1.86228 -8.26149
-0.759949 1.89182 -8.26556
-0.65142 1.90857 -8.26242
-0.701167 2.22701 -8.05756
-0.592936 2.15157 -8.09587
-0.618002 2.20188 -8.03532
-0.467472 2.04624 -8.02718
-0.492425 2.13436 -8.0101
-0.525834 2.22659 -7.97992
-0.525858 2.24344 -7.97978
-0.467428 2.10924 -8.02739
-0.467285 2.18408 -7.87857
-0.934197 2.68289 -7.75441
-0.634449 2.25228 -8.04649
-0.567429 2.30236 -7.99435
-0.450369 2.36832 -7.77008
-0.508842 2.47759 -7.78621
-0.500382 2.59889 -7.72858
-0.467375 2.49026 -7.77119
-0.367124 2.21793 -7.91263
-0.300484 2.21829 -7.9438
0.21693 1.75586 -7.85381
-0.300306 2.28064 -7.83826
-0.38366 2.45226 -7.77382
-0.133339 2.34298 -7.73402
-7.5334 0.154112 -5.14169
-7.53368 0.287179 -5.13988
-7.59979 0.437428 -5.15022
-7.59133 0.383318 -5.13441
-7.59133 0.383318 -5.13441
-7.52602 0.579181 -5.1891
-7.4105 0.0291243 -5.21574
-7.50028 0.345782 -5.12074
-7.49253 0.304169 -5.17065
-7.21126 0.337594 -5.20483
-7.33581 0.47941 -5.21373
-7.5011 0.6583 -5.18571
-7.4015 0.612458 -5.18019
-7.34321 0.724978 -5.16624
-7.38479 0.674972 -5.1707
-7.38479 0.674972 -5.1707
-7.30268 0.545787 -5.21629
-7.30268 0.545787 -5.21629
-7.22765 0.433355 -5.19301
-7.2114 0.479679 -5.20392
-7.2114 0.479679 -5.20392
-7.21951 0.521019 -5.19862
-7.22845 0.550131 -5.23453
-7.27844 0.587708 -5.255
-7.3027 0.60427 -5.21609
-7.24438 0.737491 -5.20236
-7.63319 0.916804 -5.16037
-7.63319 0.916804 -5.16037
-7.60044 0.808444 -5.19286
-7.60804 0.908065 -5.14384
-7.59132 0.858286 -5.13448
-7.61595 0.982819 -5.13976
-7.57487 1.00818 -5.14677
-7.59976 1.08739 -5.15034
-7.57451 1.1288 -5.19582
-7.57451 1.1288 -5.19582
-7.59123 1.22904 -5.13506
-7.51663 0.841544 -5.13257
-7.3529 0.89602 -5.24409
-7.48437 0.983501 -5.1763
-7.44269 0.949776 -5.17259
-7.49298 1.10837 -5.1911
-7.41867 1.00018 -5.21001
-7.34413 0.941934 -5.20702
-7.37742 1.09177 -5.21799
-7.41038 1.0502 -5.21649
-7.22993 0.900683 -5.34154
-7.29421 0.900061 -5.20056
-7.25332 1.02512 -5.23827
-7.29406 0.949984 -5.20154
-7.29406 0.949984 -5.20154
-7.15374 0.975166 -5.23245
-7.44365 1.16269 -5.21309
-7.34477 1.23355 -5.2495
-7.47626 1.44586 -5.18169
-7.41047 1.4542 -5.21591
-7.26902 1.24585 -5.1843
-7.16194 1.1252 -5.22652
-7.17863 1.28777 -5.23608
-7.14553 1.35444 -5.2384
-7.14553 1.35444 -5.2384
-7.19531 1.38779 -5.23705
-7.14562 1.48367 -5.23788
-7.59967 1.64564 -5.15096
-7.6257 1.77088 -5.20865
-7.66705 1.88343 -5.19994
-7.64124 1.95814 -5.15532
-7.57577 1.89161 -5.18776
-7.60998 2.12531 -5.24847
-7.37663 1.65838 -5.17641
-7.19536 1.5086 -5.23672
-7.1456 1.66288 -5.23801
-7.24518 1.86703 -5.24384
-7.51 1.93349 -5.22192
-7.55625 2.93124 -5.47729
-7.51505 2.96049 -5.48482
-7.60256 2.40052 -5.2962
-7.56832 2.27942 -5.23563
-7.56832 2.27942 -5.23563
-7.59405 2.2505 -5.28084
-7.57184 2.87246 -5.42375
-7.51857 2.37105 -5.23701
-7.42977 2.60108 -5.36351
-7.51203 2.56339 -5.32587
-7.36257 2.48823 -5.31326
-7.37946 2.57605 -5.32158
-7.16311 2.27999 -5.2888
-7.19711 2.47606 -5.34187
-7.19637 2.44248 -5.30005
-7.18885 2.6095 -5.34816
-7.34546 2.67164 -5.29175
-7.35501 2.72618 -5.36171
-7.28058 2.67629 -5.35785
-7.28933 2.78463 -5.39502
-7.18969 2.78495 -5.38939
-7.23588 2.69612 -5.18698
-7.26572 2.93525 -5.45312
-7.15715 2.91867 -5.42007
-7.04603 0.0499953 -5.2321
-7.06247 0.316631 -5.22006
-7.09553 0.283346 -5.21797
-7.02077 0.262586 -5.21617
-6.97955 0.361847 -5.20071
-7.0293 0.345817 -5.22279
-6.971 0.304194 -5.2088
-6.7982 0.0833579 -5.28383
-6.78145 0.300147 -5.27469
-7.10308 0.429176 -5.16972
-7.13707 0.554214 -5.22275
-7.13707 0.554214 -5.22275
-7.07061 0.479154 -5.21448
-6.99661 0.425183 -5.25433
-7.04601 0.40441 -5.23218
-7.02176 0.495934 -5.27084
-7.02176 0.495934 -5.27084
-6.99595 0.55833 -5.2121
-6.96427 0.633644 -5.29814
-6.94619 0.395707 -5.20465
-6.85574 0.508464 -5.25644
-6.80643 0.471075 -5.27782
-6.64846 0.00835175 -5.25827
-6.68361 0.216875 -5.37311
-6.59153 0.250181 -5.31937
-6.44936 0.258432 -5.24565
-6.44936 0.258432 -5.24565
-6.62913 0.0165268 -5.0809
-6.66596 0.38767 -5.30887
-6.70682 0.471005 -5.27196
-6.59981 0.60455 -5.313
-6.53395 0.529432 -5.34677
-6.54217 0.646238 -5.34081
-6.54217 0.646238 -5.34081
-6.52646 0.7256 -5.39423
-6.48379 0.566969 -5.32715
-6.45064 0.600403 -5.32967
-6.4204 0.984267 -5.52092
-6.48708 1.07613 -5.52831
-6.67742 1.30129 -5.50488
-6.58702 1.2849 -5.55566
-6.6035 1.25115 -5.54353
-6.41447 1.16016 -5.67368
-6.41447 1.16016 -5.67368
-6.52119 1.17634 -5.58908
-6.54442 1.14697 -5.48799
-6.47207 1.27643 -5.62341
-6.44051 1.46069 -5.73094
-6.47067 1.46823 -5.53996
-6.97167 0.87478 -5.25092
-7.03855 0.858736 -5.27977
-7.13062 1.02975 -5.33377
-6.98851 1.02529 -5.25957
-6.98851 1.02529 -5.25957
-6.92274 0.925479 -5.29314
-6.83339 0.758703 -5.39865
-6.91447 1.04213 -5.29951
-6.7825 1.0422 -5.33742
-6.92947 1.02515 -5.20395
-6.80499 0.995997 -5.19438
-6.83947 0.950435 -5.27591
-7.00484 1.25037 -5.24825
-7.1038 1.46277 -5.21162
-7.1038 1.46277 -5.21162
-6.99666 1.32123 -5.25397
-7.04675 1.42956 -5.27385
-6.92256 1.29227 -5.29436
-6.93943 1.26308 -5.31728
-6.87396 1.30487 -5.34894
-6.69177 1.00888 -5.36749
-6.65028 0.958913 -5.3622
-6.52648 0.775673 -5.3941
-6.53454 0.833858 -5.3891
-6.54136 0.77129 -5.29979
-6.41951 0.800665 -5.43443
-6.46879 0.883922 -5.4221
-6.64344 1.2718 -5.4518
-6.626 1.25913 -5.40074
-6.75885 1.47169 -5.41838
-5.81467 0.437985 -5.49544
-6.25151 0.125104 -5.31693
-6.26793 0.175166 -5.30519
-6.26793 0.175166 -5.30519
-6.31772 0.233258 -5.31253
-6.39247 0.200093 -5.3147
-6.34424 0.283574 -5.41245
-6.29445 0.317063 -5.41347
-6.13663 0.116763 -5.39232
-6.15172 0.116696 -5.2973
-6.19456 0.241918 -5.38593
-6.08798 0.266854 -5.46938
-6.36106 0.663111 -5.42119
-6.23642 0.567226 -5.412
-6.18633 0.379487 -5.39194
-6.12049 0.387808 -5.42513
-5.98716 0.133532 -5.37906
-5.96259 0.241835 -5.40442
-5.95507 0.296153 -5.45163
-5.92118 0.191776 -5.41296
-5.78743 0.100096 -5.33217
-5.66438 0.0583782 -5.4268
-5.64706 0.00834877 -5.37572
-5.76394 0.321073 -5.43358
-5.82229 0.300276 -5.44769
-5.71391 0.246027 -5.4131
-5.85544 0.462986 -5.44531
-6.26332 0.884363 -5.54097
-6.29659 0.95099 -5.55243
-6.18913 0.859448 -5.58089
-6.09257 1.11034 -5.77609
-6.10937 1.09778 -5.78496
-6.29064 1.16803 -5.705
-6.3397 1.20164 -5.64821
-6.03434 1.1937 -5.76103
-6.05763 1.29357 -5.66031
-6.13113 1.46436 -5.57909
-5.85992 0.993406 -5.7516
-5.70918 0.918087 -5.66237
-5.69215 0.842904 -5.63214
-5.92646 1.23538 -5.76027
-5.92646 1.23538 -5.76027
-5.96713 1.30625 -5.71078
-5.89425 1.13539 -5.83356
-5.90882 1.28955 -5.69635
-5.88386 1.31875 -5.6929
-5.84141 1.36031 -5.62462
-5.81798 1.25629 -5.72586
-5.66171 1.35684 -5.82262
-5.70244 1.41917 -5.77303
-6.33657 0.788234 -5.46094
-6.10327 0.91724 -5.37308
-7.08731 1.62949 -5.22395
-6.99586 1.51282 -5.21265
-7.03115 1.7924 -5.32693
-7.11243 1.69208 -5.24071
-7.07913 1.83371 -5.22972
-6.79072 1.63833 -5.33144
-6.90614 1.51317 -5.28299
-6.93864 1.6296 -5.25276
-6.95537 1.59631 -5.26204
-6.81495 1.82576 -5.29303
-6.78178 1.81755 -5.27257
-6.82245 1.81733 -5.24535
-7.05509 1.87554 -5.26709
-7.02994 1.95891 -5.26511
-6.98812 1.95875 -5.26198
-6.77402 1.88839 -5.32187
-6.79896 2.02598 -5.32529
-6.90536 1.91705 -5.24159
-6.94702 1.93392 -5.26891
-6.77332 1.90078 -5.28015
-6.78138 1.8799 -5.27516
-6.61707 1.63862 -5.36505
-6.7325 1.85925 -5.31682
