ply
format ascii 1.0
element vertex 364
property float x
property float y
property float z
property uchar diffuse_red
property uchar diffuse_green
property uchar diffuse_blue
property int number_of_camera_sees_this_point
property float vsfm_cnx
property float vsfm_cny
property float vsfm_cnz
end_header
-2426.748046875 -1158.49755859375 12690.3125 137 143 148 2 0.149145886301994324 0.088534921407699585 -0.984843671321868896
-647.0816650390625 -2643.74169921875 12815.4111328125 121 124 123 2 0.0121159777045249939 0.199901759624481201 -0.979741036891937256
-3045.160400390625 136.197006225585938 13434.705078125 153 154 156 2 0.185472622513771057 -0.0105214621871709824 -0.982593119144439697
-559.53631591796875 -2455.41015625 13439.0703125 135 140 143 2 0.00524835102260112762 0.17784176766872406 -0.984045088291168213
-3583.772705078125 -847.0914306640625 13617.3955078125 149 149 151 2 0.219555020332336426 0.0595155172049999237 -0.97378307580947876
-3437.546875 835.3077392578125 12403.2158203125 49 58 67 2 0.228865936398506165 -0.0655662864446640015 -0.971247375011444092
-224.734848022460938 1823.238525390625 12154.3603515625 88 95 101 2 -0.0211242139339447021 -0.147827044129371643 -0.988787591457366943
-1612.9501953125 -1661.151123046875 13732.1201171875 25 36 46 2 0.0804512053728103638 0.118241123855113983 -0.989720463752746582
-1581.679931640625 -632.58502197265625 12253.9248046875 16 26 35 2 0.088025897741317749 0.0502424202859401703 -0.994850337505340576
-1581.679931640625 -632.58502197265625 12253.9248046875 16 26 35 2 0.088025897741317749 0.0502424202859401703 -0.994850337505340576
-309.535125732421875 -1617.984375 12860.6171875 10 19 27 2 -0.0135756069794297218 0.123217880725860596 -0.992286801338195801
-309.535125732421875 -1617.984375 12860.6171875 10 19 27 2 -0.0135756069794297218 0.123217880725860596 -0.992286801338195801
527.5277099609375 -1249.6571044921875 11864.0341796875 1 6 12 2 -0.0839084312319755554 0.102817080914974213 -0.991154909133911133
-1476.259765625 -460.460723876953125 12206.482421875 132 135 137 2 0.0799588039517402649 0.0365680232644081116 -0.996127188205718994
40.7797660827636719 -2221.52001953125 13015.5546875 121 130 137 2 -0.0396098122000694275 0.166247069835662842 -0.985288262367248535
-498.423126220703125 2355.2607421875 12263.431640625 132 133 135 2 0.000908273330423980951 -0.187815740704536438 -0.982203841209411621
-2620.97314453125 232.201995849609375 13347.48828125 71 78 80 2 0.156498774886131287 -0.0176929272711277008 -0.987519681453704834
-3291.718505859375 -211.038909912109375 13501.8310546875 147 148 150 2 0.201678827404975891 0.0145668387413024902 -0.97934335470199585
-663.021484375 1730.8372802734375 12753.68359375 105 114 121 2 0.0135480575263500214 -0.134107097983360291 -0.990874230861663818
-3722.44775390625 -1109.4544677734375 13690.9453125 31 40 47 2 0.22744518518447876 0.0774780735373497009 -0.970703780651092529
-751.79864501953125 2051.072265625 12244.0556640625 122 130 136 2 0.0211270395666360855 -0.164561480283737183 -0.986140549182891846
1017.43902587890625 -1311.9388427734375 12042.021484375 10 18 26 2 -0.122088678181171417 0.105933353304862976 -0.986849784851074219
393.928192138671875 -3447.624267578125 13161.892578125 140 143 144 2 -0.0641104578971862793 0.250507950782775879 -0.965989470481872559
1094.560791015625 -1931.5057373046875 12928.4287109375 31 37 42 2 -0.119096875190734863 0.144978031516075134 -0.982240974903106689
1094.560791015625 -1931.5057373046875 12928.4287109375 31 37 42 2 -0.119096875190734863 0.144978031516075134 -0.982240974903106689
502.333770751953125 -1906.73291015625 12751.9541015625 34 41 52 2 -0.0758404955267906189 0.145691037178039551 -0.986418962478637695
-1227.6636962890625 -1213.9361572265625 12917.1533203125 18 28 38 2 0.0564838796854019165 0.0920509994029998779 -0.994150996208190918
-2638.04736328125 1077.190185546875 12492.513671875 120 124 130 2 0.167540907859802246 -0.0847043618559837341 -0.982219517230987549
-679.02252197265625 1535.0108642578125 12889.2021484375 90 97 102 2 0.0146545767784118652 -0.118009693920612335 -0.992904305458068848
-679.02252197265625 1535.0108642578125 12889.2021484375 90 97 102 2 0.0146545767784118652 -0.118009693920612335 -0.992904305458068848
-1377.1298828125 1739.404541015625 12740.5615234375 127 134 136 2 0.0684299841523170471 -0.13458620011806488 -0.988536238670349121
-1254.3541259765625 2043.9017333984375 12310.4736328125 124 132 137 2 0.0608032457530498505 -0.162883341312408447 -0.984769999980926514
-2388.62451171875 -1549.3416748046875 13302.20703125 18 27 37 2 0.139394253492355347 0.113089762628078461 -0.983758091926574707
396.41387939453125 1762.435546875 11420.2109375 118 123 127 2 -0.0754327550530433655 -0.151535779237747192 -0.985569298267364502
-623.0892333984375 -2696.03369140625 12675.052734375 135 139 142 2 0.0103998072445392609 0.205853670835494995 -0.978527545928955078
-2813.25537109375 -653.3779296875 12504.5126953125 121 129 133 2 0.181009382009506226 0.050235457718372345 -0.98219752311706543
-682.1224365234375 -1132.0557861328125 12524.1650390625 3 11 20 2 0.0153717612847685814 0.0886293277144432068 -0.995946049690246582
-1165.493896484375 -2573.856201171875 13558.197265625 58 61 63 2 0.0486878268420696259 0.184373036026954651 -0.981649696826934814
-3448.94091796875 763.4678955078125 12721.63671875 132 137 137 2 0.224398106336593628 -0.0585855133831501007 -0.972734928131103516
-3304.9326171875 732.73834228515625 12903.537109375 67 76 85 2 0.211183011531829834 -0.0556454509496688843 -0.975861310958862305
-998.5894775390625 -2875.49609375 12408.787109375 73 77 82 2 0.0397693812847137451 0.223225966095924377 -0.973955094814300537
-845.86395263671875 -3019.43115234375 12477.8955078125 78 83 90 2 0.0276886150240898132 0.232714220881462097 -0.972150921821594238
-845.86395263671875 -3019.43115234375 12477.8955078125 78 83 90 2 0.0276886150240898132 0.232714220881462097 -0.972150921821594238
-120.004737854003906 -1699.8345947265625 12713.2197265625 76 89 98 2 -0.0283508356660604477 0.130805611610412598 -0.991002559661865234
1459.514892578125 105.30133056640625 12949.8515625 128 127 131 2 -0.147344723343849182 -0.00863925088196992874 -0.989047467708587646
1459.514892578125 105.30133056640625 12949.8515625 128 127 131 2 -0.147344723343849182 -0.00863925088196992874 -0.989047467708587646
-303.228851318359375 1756.863525390625 12311.79296875 105 112 118 2 -0.0146318711340427399 -0.140825554728507996 -0.989926278591156006
-1714.733154296875 528.80572509765625 13358.7998046875 86 89 88 2 0.0906485840678215027 -0.0397437326610088348 -0.995089590549468994
1576.253662109375 2724.36328125 12645.326171875 112 110 104 2 -0.156152531504631042 -0.207114994525909424 -0.965774178504943848
-2254.96728515625 351.0631103515625 13350.5947265625 141 141 141 2 0.130101680755615234 -0.0265125520527362823 -0.99114614725112915
-2254.96728515625 351.0631103515625 13350.5947265625 141 141 141 2 0.130101680755615234 -0.0265125520527362823 -0.99114614725112915
1626.0401611328125 2745.30615234375 12645.537109375 108 107 102 2 -0.15977083146572113 -0.208506077527999878 -0.964882612228393555
361.861175537109375 1675.9517822265625 11509.67578125 72 81 88 2 -0.0720346942543983459 -0.143242090940475464 -0.987062692642211914
-2542.97412109375 1445.6748046875 11740.423828125 156 157 159 2 0.169585943222045898 -0.120155148208141327 -0.978163242340087891
185.165359497070312 -3224.132080078125 13247.5703125 147 149 150 2 -0.0488609336316585541 0.233936160802841187 -0.971023440361022949
147.840667724609375 -137.89410400390625 10997.205078125 152 153 153 2 -0.0569715611636638641 0.0116247395053505898 -0.998308122158050537
-745.53289794921875 1753.207275390625 12704.224609375 101 110 116 2 0.0199691541492938995 -0.136300176382064819 -0.990466296672821045
-1741.051025390625 -827.6199951171875 12403.478515625 17 25 36 2 0.0994412750005722046 0.0650333091616630554 -0.992915987968444824
-2993.31103515625 1188.0196533203125 12124.6669921875 132 136 139 2 0.199639230966567993 -0.0954716429114341736 -0.975207328796386719
-801.2314453125 -3863.553955078125 13207.525390625 113 122 131 2 0.0226243026554584503 0.278178960084915161 -0.960262775421142578
-1593.22021484375 1713.913330078125 12663.2880859375 59 67 75 2 0.0854578614234924316 -0.133271455764770508 -0.987388312816619873
-1593.22021484375 1713.913330078125 12663.2880859375 59 67 75 2 0.0854578614234924316 -0.133271455764770508 -0.987388312816619873
-486.82159423828125 1021.46136474609375 12635.978515625 141 142 144 2 -1.32649747683899477e-05 -0.0806277617812156677 -0.996744275093078613
-3503.012451171875 954.25494384765625 12325.8662109375 52 64 70 2 0.234881654381752014 -0.0751068815588951111 -0.969117939472198486
40.2260475158691406 -3202.605224609375 13098.89453125 91 98 105 2 -0.0387656241655349731 0.235033333301544189 -0.971213936805725098
-1273.484375 -1687.20751953125 13808.4619140625 5 13 23 2 0.0559679903090000153 0.119630403816699982 -0.991239726543426514
-2876.5283203125 1090.8448486328125 12573.9326171875 38 57 73 2 0.184350535273551941 -0.0849548354744911194 -0.979182064533233643
-4305.9716796875 1169.1483154296875 12942.4873046875 106 116 125 2 0.279615908861160278 -0.0863587483763694763 -0.95622020959854126
-4305.9716796875 1169.1483154296875 12942.4873046875 106 116 125 2 0.279615908861160278 -0.0863587483763694763 -0.95622020959854126
-2871.107666015625 -618.3240966796875 12700.1220703125 97 103 111 2 0.182656317949295044 0.0467714741826057434 -0.982063710689544678
-1619.8568115234375 1678.927734375 12677.658203125 138 143 145 2 0.0874353498220443726 -0.130444899201393127 -0.987592637538909912
-1652.5081787109375 -652.2529296875 12241.626953125 42 52 62 2 0.0937570109963417053 0.051846235990524292 -0.994244217872619629
991.56036376953125 -1457.2896728515625 12221.77734375 7 13 20 2 -0.118168920278549194 0.115953370928764343 -0.986200273036956787
-755.6241455078125 2481.5 12597.83984375 107 112 111 2 0.020723242312669754 -0.19241642951965332 -0.981094539165496826
-755.6241455078125 2481.5 12597.83984375 107 112 111 2 0.020723242312669754 -0.19241642951965332 -0.981094539165496826
-5229.3291015625 -3235.34228515625 12811.4013671875 156 158 159 2 0.335278868675231934 0.228413686156272888 -0.914010524749755859
-1577.39892578125 -1353.86572265625 13223.0283203125 20 30 39 2 0.0810460746288299561 0.100128024816513062 -0.991668224334716797
-1577.39892578125 -1353.86572265625 13223.0283203125 20 30 39 2 0.0810460746288299561 0.100128024816513062 -0.991668224334716797
-3041.390380859375 -323.32196044921875 13057.068359375 144 147 148 2 0.190283700823783875 0.0234677214175462723 -0.981448590755462646
-3041.390380859375 -323.32196044921875 13057.068359375 144 147 148 2 0.190283700823783875 0.0234677214175462723 -0.981448590755462646
-1239.754638671875 -2917.178466796875 12645.896484375 109 116 122 2 0.0573944784700870514 0.222114592790603638 -0.973329842090606689
-3817.68896484375 1465.5738525390625 12706.404296875 141 142 144 2 0.249833524227142334 -0.110742524266242981 -0.961935162544250488
-2489.637939453125 -1470.01708984375 13084.603515625 124 131 137 2 0.149074643850326538 0.108931690454483032 -0.982807517051696777
-364.647003173828125 -33.4793739318847656 11229.669921875 131 131 131 2 -0.0107505042105913162 0.00218768231570720673 -0.999939799308776855
-4638.69091796875 1363.2332763671875 13191.1845703125 114 124 133 2 0.296370983123779297 -0.0980665981769561768 -0.950024843215942383
-1495.1435546875 -1621.604736328125 13642.3427734375 20 32 42 2 0.0725643560290336609 0.116264618933200836 -0.990563929080963135
-1789.63232421875 -2991.30908203125 13497.9755859375 41 42 44 2 0.0930336341261863708 0.213327303528785706 -0.972541093826293945
-202.005401611328125 -2022.5789794921875 13068.025390625 70 83 92 2 -0.0213731173425912857 0.151154667139053345 -0.988279044628143311
504.864288330078125 -3483.829833984375 13166.9970703125 12 16 17 2 -0.0720688551664352417 0.252748340368270874 -0.964844226837158203
-815.6702880859375 -50.7743377685546875 11856.6123046875 129 130 133 2 0.0274486895650625229 0.00351765798404812813 -0.999617040157318115
-4184.7470703125 225.17974853515625 13181.03125 130 136 139 2 0.267854690551757812 -0.0169669650495052338 -0.963309884071350098
-2585.478271484375 813.29046630859375 13062.0234375 90 103 112 2 0.156937241554260254 -0.0615616068243980408 -0.98568803071975708
-904.7969970703125 -2787.185791015625 12798.5986328125 134 138 142 2 0.0315946526825428009 0.210485696792602539 -0.977086246013641357
-2925.593994140625 -257.0933837890625 13008.3681640625 93 97 99 2 0.182620540261268616 0.0186257530003786087 -0.98300701379776001
-1142.84521484375 -401.76593017578125 11973.3544921875 144 147 147 2 0.054139256477355957 0.032492905855178833 -0.998004555702209473
-1142.84521484375 -401.76593017578125 11973.3544921875 144 147 147 2 0.054139256477355957 0.032492905855178833 -0.998004555702209473
-1820.762451171875 -3215.172607421875 13446.2861328125 16 20 25 2 0.095240958034992218 0.22930106520652771 -0.968684792518615723
-3937.459716796875 444.798675537109375 12890.41015625 39 51 69 2 0.256241172552108765 -0.0337274372577667236 -0.966024279594421387
1193.4091796875 1470.6090087890625 12652.857421875 122 123 125 2 -0.129615813493728638 -0.11426224559545517 -0.984958827495574951
-843.75054931640625 -2707.02392578125 12906.7431640625 61 67 69 2 0.0267986562103033066 0.203068569302558899 -0.978797733783721924
-279.851165771484375 -593.8819580078125 11670.337890625 12 17 24 2 -0.0175284687429666519 0.0496520400047302246 -0.998612761497497559
-1778.3052978515625 -1802.067626953125 13940.435546875 11 20 29 2 0.09072837233543396 0.126181140542030334 -0.987849533557891846
11.2579259872436523 2129.21044921875 11813.9443359375 52 56 56 2 -0.0410549119114875793 -0.176489025354385376 -0.983446061611175537
-1820.016845703125 -1088.508544921875 12769.5947265625 4 14 22 2 0.102525725960731506 0.0831720009446144104 -0.991247117519378662
-3524.08056640625 2282.02197265625 13431.8330078125 147 147 147 2 0.215799614787101746 -0.16298210620880127 -0.962739527225494385
1238.8653564453125 1604.8111572265625 12639.69921875 140 141 143 2 -0.133029729127883911 -0.124541305005550385 -0.983256101608276367
-1291.8514404296875 -1624.2008056640625 13647.716796875 20 31 40 2 0.05796051025390625 0.116516217589378357 -0.991496145725250244
-98.2973480224609375 300.240509033203125 11209.8798828125 59 61 61 2 -0.0342449881136417389 -0.0272912662476301193 -0.999040782451629639
-383.510833740234375 29.6318283081054688 11356.013671875 132 132 132 2 -0.00899148453027009964 -0.00334564922377467155 -0.999953985214233398
229.15362548828125 -1254.064697265625 12038.462890625 51 61 69 2 -0.058494221419095993 0.101895317435264587 -0.993073880672454834
229.15362548828125 -1254.064697265625 12038.462890625 51 61 69 2 -0.058494221419095993 0.101895317435264587 -0.993073880672454834
-3602.003662109375 1341.275146484375 12315.330078125 100 102 101 2 0.241683319211006165 -0.104897394776344299 -0.964668691158294678
-336.84619140625 -1748.2301025390625 13044.4580078125 10 18 28 2 -0.0113188782706856728 0.131195574998855591 -0.99129188060760498
-3399.924072265625 1258.842529296875 11967.357421875 112 114 119 2 0.233100369572639465 -0.101591207087039948 -0.967131555080413818
-3039.23583984375 1216.0682373046875 11744.42578125 89 92 94 2 0.209264621138572693 -0.100583821535110474 -0.972672224044799805
-1267.42822265625 -906.3326416015625 12387.71484375 30 43 52 2 0.0621256306767463684 0.0715610012412071228 -0.995499610900878906
949.70538330078125 1855.1231689453125 12010.607421875 65 70 74 2 -0.116278402507305145 -0.151089832186698914 -0.98165738582611084
-2.53554511070251465 -1621.02734375 12588.568359375 71 83 92 2 -0.0378002263605594635 0.125975146889686584 -0.991312980651855469
-1506.2686767578125 -1026.386474609375 12648.2021484375 7 16 26 2 0.0793350487947463989 0.0793288648128509521 -0.993686497211456299
-1697.48583984375 2157.658447265625 12221.94140625 136 139 141 2 0.0961663946509361267 -0.172363772988319397 -0.980327904224395752
-349.837615966796875 -96.9681777954101562 11193.3515625 114 118 121 2 -0.0120926303789019585 0.00781630910933017731 -0.999896347522735596
-1226.0391845703125 3090.2294921875 13748.01953125 138 138 138 2 0.0519306622445583344 -0.218096241354942322 -0.974544644355773926
-1273.756103515625 2009.2821044921875 12379.3037109375 68 78 85 2 0.062028396874666214 -0.159334331750869751 -0.985274076461791992
-1926.4093017578125 -3031.73046875 13646.900390625 46 48 48 2 0.101594008505344391 0.213670477271080017 -0.971608757972717285
-1466.27880859375 -3907.19970703125 13286.6923828125 26 32 38 2 0.0699555948376655579 0.278932780027389526 -0.957759201526641846
-406.135040283203125 -1409.4371337890625 12774.7685546875 2 8 18 2 -0.00624007964506745338 0.108163855969905853 -0.994113504886627197
-685.9346923828125 1893.7833251953125 12508.0185546875 111 120 125 2 0.015578235499560833 -0.149196803569793701 -0.988684773445129395
-426.96844482421875 -2077.14208984375 13291.5078125 87 101 107 2 -0.00443875230848789215 0.152656689286231995 -0.988269329071044922
-4627.0615234375 1243.318115234375 13252.3623046875 45 54 65 2 0.294626414775848389 -0.0892177894711494446 -0.951438605785369873
-1613.57080078125 -3903.94482421875 13345.12890625 64 71 77 2 0.0801025182008743286 0.277387619018554688 -0.957413017749786377
-2969.409423828125 1097.714599609375 12534.193359375 42 50 56 2 0.191824391484260559 -0.085623525083065033 -0.977687060832977295
-164.68609619140625 -420.92230224609375 11283.720703125 10 13 19 2 -0.0282075107097625732 0.0361772328615188599 -0.998947203159332275
-565.38629150390625 -199.2806396484375 11558.5732421875 86 94 102 2 0.00673208665102720261 0.0163456462323665619 -0.999843716621398926
-2239.052978515625 1378.6983642578125 12184.48046875 142 142 142 2 0.140117555856704712 -0.111124373972415924 -0.983879268169403076
403.43927001953125 2497.306640625 12596.349609375 71 71 71 2 -0.0685562342405319214 -0.193202242255210876 -0.978760898113250732
-4097.828125 432.8978271484375 12856.3388671875 118 123 129 2 0.267976701259613037 -0.0328212007880210876 -0.96286618709564209
702.43719482421875 1903.3306884765625 11675.404296875 135 136 140 2 -0.0990460291504859924 -0.159501016139984131 -0.982216536998748779
702.43719482421875 1903.3306884765625 11675.404296875 135 136 140 2 -0.0990460291504859924 -0.159501016139984131 -0.982216536998748779
-953.986572265625 -2573.654052734375 13326.2978515625 102 107 111 2 0.0340849459171295166 0.187546387314796448 -0.981664180755615234
-410.9010009765625 -2537.62060546875 13420.4736328125 119 123 129 2 -0.00554331764578819275 0.183863192796707153 -0.982936203479766846
-106.779945373535156 -3472.05908203125 12898.55078125 82 92 101 2 -0.0282361265271902084 0.257373571395874023 -0.965899348258972168
-106.779945373535156 -3472.05908203125 12898.55078125 82 92 101 2 -0.0282361265271902084 0.257373571395874023 -0.965899348258972168
-3469.50439453125 -271.6165771484375 13452.5224609375 147 148 150 2 0.214621096849441528 0.0189423877745866776 -0.976513683795928955
-537.5704345703125 1914.052734375 12370.9326171875 65 72 78 2 0.00400430802255868912 -0.152386873960494995 -0.988312780857086182
-537.5704345703125 1914.052734375 12370.9326171875 65 72 78 2 0.00400430802255868912 -0.152386873960494995 -0.988312780857086182
-1011.388427734375 -373.356689453125 11886.685546875 23 28 33 2 0.0436292290687561035 0.0303802900016307831 -0.998585760593414307
-3205.660888671875 967.7623291015625 12426.6767578125 117 126 132 2 0.211187168955802917 -0.0759662464261054993 -0.974489152431488037
-744.666748046875 -3090.49560546875 12581.7265625 148 152 157 2 0.0197010897099971771 0.236105665564537048 -0.971527636051177979
-311.281890869140625 -2310.9677734375 13184.55859375 35 44 51 2 -0.0130295073613524437 0.170754820108413696 -0.985227406024932861
716.25701904296875 -1839.5780029296875 12739.64453125 26 31 35 2 -0.092264905571937561 0.140577912330627441 -0.985761165618896484
-1165.892822265625 -3315.417236328125 12633.4140625 139 146 149 2 0.0514529608190059662 0.251030266284942627 -0.96661078929901123
-2613.193603515625 748.208984375 13218.392578125 142 146 150 2 0.157191917300224304 -0.0560384057462215424 -0.985976874828338623
199.705413818359375 -1745.4808349609375 12634.1474609375 29 38 47 2 -0.0532873831689357758 0.134955257177352905 -0.989417791366577148
-1317.6217041015625 -1423.73291015625 13316.015625 29 39 50 2 0.0613653808832168579 0.104698382318019867 -0.992608964443206787
-1317.6217041015625 -1423.73291015625 13316.015625 29 39 50 2 0.0613653808832168579 0.104698382318019867 -0.992608964443206787
1410.124267578125 -1600.463134765625 12406.4541015625 91 96 101 2 -0.148606598377227783 0.124868579208850861 -0.980981111526489258
-1065.616455078125 -3898.03955078125 13141.7080078125 140 143 143 2 0.0418149791657924652 0.281580746173858643 -0.958625972270965576
762.8585205078125 -1074.6826171875 11697.091796875 2 4 8 2 -0.104756660759449005 0.0895081982016563416 -0.990461647510528564
-2489.375732421875 2805.354736328125 13177.306640625 117 117 117 2 0.145762518048286438 -0.205132797360420227 -0.967819094657897949
-2489.375732421875 2805.354736328125 13177.306640625 117 117 117 2 0.145762518048286438 -0.205132797360420227 -0.967819094657897949
-3314.286376953125 -1791.569580078125 13725.83203125 35 49 59 2 0.198523357510566711 0.125348567962646484 -0.97204744815826416
1729.000244140625 2321.969970703125 12297.3427734375 43 63 78 2 -0.172797307372093201 -0.181997507810592651 -0.967996895313262939
-3248.244140625 1140.9342041015625 11700.330078125 130 136 139 2 0.226486548781394958 -0.0944498255848884583 -0.969424068927764893
-1124.2064208984375 -3143.519775390625 12491.759765625 137 144 149 2 0.0489687249064445496 0.241306036710739136 -0.969212830066680908
-441.7186279296875 -243.442398071289062 11347.232421875 13 20 26 2 -0.00392215326428413391 0.0205039773136377335 -0.999782085418701172
-1459.363037109375 -1300.2508544921875 13048.7978515625 22 34 43 2 0.0732932388782501221 0.09749632328748703 -0.992533385753631592
140.204925537109375 1968.8262939453125 11513.8994140625 40 47 54 2 -0.0530596822500228882 -0.167633175849914551 -0.984420537948608398
-487.43804931640625 -408.347930908203125 11608.8046875 4 8 15 2 5.67330753256101161e-05 0.0341151803731918335 -0.999417901039123535
1551.403076171875 -1555.511474609375 12525.4638671875 137 140 142 2 -0.158033370971679688 0.120091162621974945 -0.980103850364685059
74.4319992065429688 -1720.669921875 12649.87109375 25 34 42 2 -0.0435461848974227905 0.132963120937347412 -0.990163922309875488
74.4319992065429688 -1720.669921875 12649.87109375 25 34 42 2 -0.0435461848974227905 0.132963120937347412 -0.990163922309875488
1535.956787109375 -405.73541259765625 13096.9677734375 118 118 119 2 -0.151277825236320496 0.0297299865633249283 -0.988044083118438721
-1886.3499755859375 -1113.2635498046875 12847.6259765625 20 30 40 2 0.106917336583137512 0.0845165848731994629 -0.990669310092926025
500.848358154296875 2040.7412109375 11601.61328125 148 149 151 2 -0.0827233493328094482 -0.171938642859458923 -0.981628239154815674
-785.8358154296875 -2787.63037109375 12715.6591796875 132 135 141 2 0.0227407980710268021 0.211870819330215454 -0.977033078670501709
1683.82666015625 -1451.145751953125 12626.193359375 148 151 151 2 -0.166903972625732422 0.111056357622146606 -0.979698717594146729
-677.88873291015625 75.4148025512695312 11918.1787109375 41 42 46 2 0.0158695038408041 -0.00699837738648056984 -0.999849557876586914
-661.3134765625 128.623199462890625 11915.0498046875 126 127 129 2 0.0144963031634688377 -0.0114280693233013153 -0.999829590320587158
-661.3134765625 128.623199462890625 11915.0498046875 126 127 129 2 0.0144963031634688377 -0.0114280693233013153 -0.999829590320587158
-1085.5926513671875 -2751.8974609375 12965.9931640625 48 53 54 2 0.0447187535464763641 0.205274328589439392 -0.977682292461395264
-4135.90576171875 729.90533447265625 12850.625 118 126 129 2 0.270446360111236572 -0.0548215880990028381 -0.961172938346862793
-4135.90576171875 729.90533447265625 12850.625 118 126 129 2 0.270446360111236572 -0.0548215880990028381 -0.961172938346862793
-249.466842651367188 -698.36871337890625 11790.587890625 7 14 20 2 -0.019892428070306778 0.0578973852097988129 -0.998124361038208008
-749.465087890625 -528.2655029296875 11924.29296875 1 5 12 2 0.0217803586274385452 0.0431619025766849518 -0.998830676078796387
-254.117584228515625 -2273.516357421875 13134.0546875 89 98 108 2 -0.0173337720334529877 0.168668553233146667 -0.985520422458648682
-1205.082763671875 -2792.72021484375 13004.2080078125 68 70 69 2 0.0534414350986480713 0.207526937127113342 -0.976768434047698975
-2776.44482421875 -1675.0089111328125 13330.701171875 17 29 41 2 0.166578963398933411 0.12140481173992157 -0.97852557897567749
554.81658935546875 2460.999755859375 12465.7509765625 78 78 78 2 -0.0809774771332740784 -0.19223351776599884 -0.978002488613128662
-422.13433837890625 2369.067626953125 12238.3623046875 131 131 133 2 -0.00515231490135192871 -0.189241454005241394 -0.981917083263397217
1431.2696533203125 -1491.096435546875 12331.8359375 81 86 94 2 -0.151246905326843262 0.117054246366024017 -0.981540977954864502
-2657.30029296875 768.550048828125 13230.5087890625 59 71 82 2 0.160214930772781372 -0.057458873838186264 -0.985408365726470947
-111.017044067382812 -3256.573486328125 12742.3837890625 65 72 76 2 -0.0283498261123895645 0.245100736618041992 -0.969083011150360107
-111.017044067382812 -3256.573486328125 12742.3837890625 65 72 76 2 -0.0283498261123895645 0.245100736618041992 -0.969083011150360107
757.56964111328125 1793.642578125 11816.8759765625 138 140 145 2 -0.102550923824310303 -0.148765996098518372 -0.983540534973144531
-1629.9674072265625 -3034.63037109375 13170.4619140625 28 31 36 2 0.0835571661591529846 0.221545025706291199 -0.97156369686126709
-5021.794921875 1515.610595703125 13281.7802734375 140 144 146 2 0.318737030029296875 -0.107278130948543549 -0.94175267219543457
-4221.5498046875 379.389404296875 13138.8046875 61 69 78 2 0.271055668592453003 -0.0282081756740808487 -0.962150275707244873
-414.604339599609375 -2589.474365234375 13247.2958984375 108 113 119 2 -0.00533478148281574249 0.189847990870475769 -0.981799006462097168
-414.604339599609375 -2589.474365234375 13247.2958984375 108 113 119 2 -0.00533478148281574249 0.189847990870475769 -0.981799006462097168
-1363.155517578125 2159.085205078125 12303.8193359375 89 100 110 2 0.0693147927522659302 -0.171753659844398499 -0.982698380947113037
-878.4481201171875 -1578.2564697265625 13367.6455078125 17 27 37 2 0.0288095157593488693 0.115717202425003052 -0.992864310741424561
-2768.08642578125 -1270.529052734375 12942.521484375 18 30 41 2 0.17127266526222229 0.0948757603764533997 -0.980644822120666504
371.065887451171875 -2126.815673828125 13078.0439453125 44 57 66 2 -0.0640873759984970093 0.158379629254341125 -0.985296249389648438
-652.171875 -596.6932373046875 11916.7705078125 1 7 14 2 0.0137181691825389862 0.0488713271915912628 -0.998710870742797852
279.443695068359375 -1305.718017578125 12067.5458984375 83 91 98 2 -0.0624134726822376251 0.105799004435539246 -0.992426872253417969
-3162.42041015625 -348.7584228515625 13046.4970703125 143 145 147 2 0.199095085263252258 0.0253389999270439148 -0.979652523994445801
1616.28955078125 2174.62451171875 12314.6728515625 120 129 136 2 -0.164367958903312683 -0.17086714506149292 -0.971487283706665039
-959.24493408203125 2431.117919921875 12785.5654296875 74 78 79 2 0.0359320640563964844 -0.185929954051971436 -0.981905758380889893
-3799.954833984375 380.35772705078125 13413.05078125 54 63 76 2 0.237731039524078369 -0.0279572121798992157 -0.970928609371185303
102.061798095703125 -365.922943115234375 11129.06640625 11 14 20 2 -0.0522364489734172821 0.0317569300532341003 -0.998129665851593018
1474.454833984375 -2031.8353271484375 13017.39453125 30 36 44 2 -0.146031945943832397 0.150811180472373962 -0.977717041969299316
-2793.942138671875 -1828.3687744140625 13541.9833984375 120 131 135 2 0.165103018283843994 0.130404070019721985 -0.977617383003234863
-2793.942138671875 -1828.3687744140625 13541.9833984375 120 131 135 2 0.165103018283843994 0.130404070019721985 -0.977617383003234863
-283.13055419921875 -1203.804443359375 12346.193359375 1 5 13 2 -0.016276506707072258 0.0955764278769493103 -0.995289027690887451
1375.662841796875 -1692.164306640625 12511.50390625 25 29 35 2 -0.144667118787765503 0.130934759974479675 -0.980779051780700684
-2176.862060546875 -765.95196533203125 12315.5341796875 77 88 97 2 0.134425237774848938 0.060327436774969101 -0.989085674285888672
-1119.3121337890625 -3941.968994140625 13197.78125 83 89 93 2 0.0454717352986335754 0.283356040716171265 -0.95793616771697998
-4900.75537109375 -3218.44140625 12850.66796875 88 94 101 2 0.313696354627609253 0.228420108556747437 -0.921639204025268555
762.57220458984375 1931.3544921875 11729.578125 114 115 115 2 -0.103506803512573242 -0.160982519388198853 -0.981514632701873779
25.0635128021240234 -598.60809326171875 11427.2041015625 1 3 7 2 -0.0442228280007839203 0.0510637462139129639 -0.99771583080291748
723.16400146484375 -1574.9034423828125 12300.515625 3 5 10 2 -0.0962336510419845581 0.124736420810222626 -0.987511992454528809
-834.40020751953125 1853.8890380859375 12679.9072265625 107 116 121 2 0.0268502794206142426 -0.144176557660102844 -0.989187657833099365
1450.234375 -1820.069580078125 12700.984375 94 104 113 2 -0.148007452487945557 0.13857780396938324 -0.979229271411895752
1450.234375 -1820.069580078125 12700.984375 94 104 113 2 -0.148007452487945557 0.13857780396938324 -0.979229271411895752
-4937.57470703125 -3197.091552734375 12730.8349609375 81 86 93 2 0.318657904863357544 0.228585943579673767 -0.91989433765411377
325.525238037109375 -3601.56689453125 12916.9814453125 145 149 153 2 -0.0600071921944618225 0.265603870153427124 -0.962212920188903809
-3002.0537109375 1129.660888671875 12323.8720703125 116 123 128 2 0.19733940064907074 -0.0894549787044525146 -0.976245343685150146
889.18768310546875 1995.3192138671875 11880.291015625 107 105 109 2 -0.112401701509952545 -0.163952156901359558 -0.980043649673461914
-2921.042236328125 -882.36444091796875 12751.515625 123 130 135 2 0.185422271490097046 0.066648527979850769 -0.980396091938018799
-4380.8525390625 -42.906494140625 13573.25 148 148 151 2 0.273569673299789429 0.00240355776622891426 -0.961849212646484375
642.2763671875 -1712.1156005859375 12492.1494140625 22 27 32 2 -0.0884042754769325256 0.13354220986366272 -0.987092256546020508
-1461.2767333984375 -893.91864013671875 12435.0869140625 74 86 93 2 0.0771883577108383179 0.0702363923192024231 -0.994539499282836914
1755.20263671875 -1431.9986572265625 12697.017578125 136 140 143 2 -0.171349212527275085 0.108917102217674255 -0.979171335697174072
271.801300048828125 -3337.81787109375 13135.1640625 105 110 113 2 -0.0554670989513397217 0.243578225374221802 -0.968293905258178711
271.801300048828125 -3337.81787109375 13135.1640625 105 110 113 2 -0.0554670989513397217 0.243578225374221802 -0.968293905258178711
1384.5523681640625 1542.7904052734375 12989.119140625 91 92 94 2 -0.140416368842124939 -0.116551265120506287 -0.983208537101745605
-4299.42724609375 585.00860595703125 13096.40234375 38 47 54 2 0.276951014995574951 -0.04319005087018013 -0.959912896156311035
-2750.9482421875 1346.738525390625 11654.552734375 137 144 148 2 0.187640592455863953 -0.112523563206195831 -0.975771188735961914
-3676.750732421875 768.16534423828125 12719.546875 122 130 133 2 0.240723893046379089 -0.0587140098214149475 -0.968816101551055908
1475.1192626953125 -2100.97216796875 13097.7578125 45 52 62 2 -0.145119965076446533 0.154934227466583252 -0.977208077907562256
-3242.31787109375 2863.509765625 13497.064453125 41 49 59 2 0.194240540266036987 -0.202747181057929993 -0.959773004055023193
-3334.8505859375 1403.735595703125 12111.740234375 140 142 143 2 0.225365325808525085 -0.111945264041423798 -0.967821657657623291
1176.7259521484375 1937.102783203125 12127.7353515625 82 86 89 2 -0.132983669638633728 -0.155770137906074524 -0.978800773620605469
-365.817230224609375 2387.4228515625 12273.388671875 130 131 132 2 -0.00959919113665819168 -0.190123081207275391 -0.981713354587554932
-2423.460205078125 772.793212890625 13254.294921875 149 151 151 2 0.143075689673423767 -0.0578225478529930115 -0.988021194934844971
-3326.514404296875 1127.978759765625 11827.85546875 132 137 142 2 0.230259373784065247 -0.092321835458278656 -0.96874004602432251
1570.30517578125 -370.295654296875 13106.1484375 145 145 145 2 -0.153693914413452148 0.0270495116710662842 -0.987748205661773682
-497.57672119140625 694.20635986328125 12357.1943359375 121 121 121 2 0.000852096476592123508 -0.0563397593796253204 -0.998411297798156738
-4541.296875 1262.4979248046875 13118.744140625 115 123 125 2 0.291646063327789307 -0.0915669649839401245 -0.952133417129516602
-437.77386474609375 -3506.670166015625 12903.6044921875 121 132 136 2 -0.00366920954547822475 0.259779065847396851 -0.965661108493804932
-435.44964599609375 -1368.8399658203125 12691.673828125 11 21 30 2 -0.00400514528155326843 0.105740189552307129 -0.994385719299316406
-5077.67138671875 -3333.51708984375 12748.7646484375 31 40 48 2 0.326507598161697388 0.23678182065486908 -0.915055811405181885
865.11859130859375 1856.77685546875 11915.833984375 49 56 63 2 -0.11034306138753891 -0.152489438652992249 -0.982125937938690186
-5097.564453125 -3265.007080078125 12714.32421875 34 44 52 2 0.328883141279220581 0.232583284378051758 -0.915281891822814941
-909.90576171875 -2566.373291015625 13288.560546875 30 33 39 2 0.0309564024209976196 0.187560603022575378 -0.981765091419219971
-692.61767578125 -3783.095703125 13173.2529296875 118 128 136 2 0.0148582411929965019 0.27350151538848877 -0.96175682544708252
-3456.359130859375 1075.52734375 12077.5830078125 52 64 74 2 0.235681414604187012 -0.0861900374293327332 -0.96800076961517334
-3905.494140625 1044.695556640625 12645.517578125 60 67 75 2 0.257896959781646729 -0.079585149884223938 -0.96288907527923584
-3905.494140625 1044.695556640625 12645.517578125 60 67 75 2 0.257896959781646729 -0.079585149884223938 -0.96288907527923584
-573.0518798828125 33.2091255187988281 11630.458984375 56 57 59 2 0.00734304590150713921 -0.0035726446658372879 -0.999966681003570557
-573.0518798828125 33.2091255187988281 11630.458984375 56 57 59 2 0.00734304590150713921 -0.0035726446658372879 -0.999966681003570557
-2568.696533203125 -1398.880859375 12923.3720703125 35 44 54 2 0.156755939126014709 0.104831598699092865 -0.98205798864364624
-1172.9334716796875 -375.2803955078125 11997.0029296875 69 70 73 2 0.056508280336856842 0.0302423033863306046 -0.997943997383117676
-1172.9334716796875 -375.2803955078125 11997.0029296875 69 70 73 2 0.056508280336856842 0.0302423033863306046 -0.997943997383117676
-155.49755859375 -2938.611083984375 13144.1171875 25 28 33 2 -0.0244188327342271805 0.215950369834899902 -0.976098954677581787
-2130.251953125 -1757.853271484375 13837.4130859375 2 11 20 2 0.116039186716079712 0.123685985803604126 -0.985513389110565186
-2156.353271484375 -919.13641357421875 12531.693359375 18 30 40 2 0.130497872829437256 0.0712756514549255371 -0.988883256912231445
-285.965179443359375 -1994.75732421875 13138.3623046875 63 76 85 2 -0.0150088686496019363 0.148355349898338318 -0.988820195198059082
791.06304931640625 -1145.316162109375 11760.353515625 10 15 19 2 -0.106479793787002563 0.0948645174503326416 -0.989779174327850342
-942.083251953125 321.94329833984375 12585.8662109375 124 124 124 2 0.0357888117432594299 -0.0260402187705039978 -0.999020040035247803
-1361.1788330078125 -821.548828125 12355.2626953125 43 56 65 2 0.0697658061981201172 0.0649669468402862549 -0.995445668697357178
-1361.1788330078125 -821.548828125 12355.2626953125 43 56 65 2 0.0697658061981201172 0.0649669468402862549 -0.995445668697357178
58.5994033813476562 1973.751953125 11638.6962890625 103 116 125 2 -0.045693960040807724 -0.166362524032592773 -0.985005378723144531
1334.397216796875 -1625.491455078125 12397.71875 65 73 80 2 -0.142858102917671204 0.126995548605918884 -0.981561839580535889
-3787.581298828125 557.23345947265625 12798.0625 47 56 71 2 0.247364118695259094 -0.0424763411283493042 -0.967991113662719727
-4260.693359375 1782.3748779296875 13551.3330078125 147 147 147 2 0.264028400182723999 -0.125474736094474792 -0.956318497657775879
1233.7662353515625 1956.4451904296875 12054.12890625 77 81 82 2 -0.138218104839324951 -0.158093973994255066 -0.977702438831329346
-3259.74267578125 -969.71295166015625 13089.384765625 122 128 128 2 0.204940482974052429 0.071126990020275116 -0.976186633110046387
-3259.74267578125 -969.71295166015625 13089.384765625 122 128 128 2 0.204940482974052429 0.071126990020275116 -0.976186633110046387
268.815673828125 1510.8662109375 11828.318359375 112 118 122 2 -0.0626212358474731445 -0.126131802797317505 -0.990034997463226318
-3119.188720703125 -1467.2706298828125 13247.1826171875 10 22 32 2 0.192131802439689636 0.106609366834163666 -0.975561261177062988
1760.5157470703125 2048.531494140625 12735.0146484375 46 52 60 2 -0.170170426368713379 -0.155967175960540771 -0.972993433475494385
607.93597412109375 1902.1666259765625 11560.986328125 129 129 131 2 -0.0921046137809753418 -0.161037623882293701 -0.982641160488128662
-2275.974853515625 876.6484375 13238.2705078125 109 116 118 2 0.132469281554222107 -0.0656509622931480408 -0.989010512828826904
-248.833297729492188 -103.987785339355469 11065.3330078125 91 93 96 2 -0.0212533287703990936 0.00853345729410648346 -0.999737679958343506
-488.179351806640625 1070.7508544921875 12708.2353515625 60 62 64 2 9.11148017621599138e-05 -0.0839854851365089417 -0.996466994285583496
-488.179351806640625 1070.7508544921875 12708.2353515625 60 62 64 2 9.11148017621599138e-05 -0.0839854851365089417 -0.996466994285583496
-606.742431640625 -182.483871459960938 11559.8525390625 29 32 40 2 0.0102716125547885895 0.0149032333865761757 -0.999836206436157227
-199.070907592773438 -1803.79833984375 12922.966796875 63 76 85 2 -0.021876603364944458 0.136526420712471008 -0.990394830703735352
-977.7471923828125 2146.767333984375 12331.2958984375 116 127 135 2 0.0388127639889717102 -0.17072276771068573 -0.98455435037612915
-66.3500747680664062 -1792.291259765625 12753.5732421875 90 103 112 2 -0.0323612764477729797 0.137383267283439636 -0.989989161491394043
1180.6787109375 -1882.1434326171875 12818.0634765625 60 65 72 2 -0.126578599214553833 0.142382800579071045 -0.981684744358062744
1481.05224609375 -1883.411865234375 12823.818359375 31 40 48 2 -0.148845434188842773 0.141971364617347717 -0.978615939617156982
-1971.3331298828125 -1365.3818359375 13276.7392578125 11 21 31 2 0.10958060622215271 0.100298590958118439 -0.988904595375061035
1496.169921875 -1612.5555419921875 12525.2255859375 86 94 104 2 -0.153773397207260132 0.124537654221057892 -0.980226576328277588
-299.32720947265625 -439.4970703125 11478.8525390625 2 8 13 2 -0.0161452498286962509 0.0371784009039402008 -0.999178230762481689
-1658.240478515625 -3365.4736328125 13182.677734375 90 99 104 2 0.0850553363561630249 0.244136601686477661 -0.966003596782684326
1768.0703125 -942.63848876953125 12990.9501953125 143 146 145 2 -0.169147863984107971 0.0701444447040557861 -0.983091413974761963
-1309.0777587890625 -324.004913330078125 12117.4111328125 113 116 117 2 0.0670189708471298218 0.0257419608533382416 -0.997419595718383789
-5042.54150390625 -3528.6064453125 12881.2724609375 114 115 116 2 0.320429384708404541 0.247901245951652527 -0.914259254932403564
-4049.09619140625 777.8779296875 12718.072265625 117 124 130 2 0.266939312219619751 -0.0590306669473648071 -0.961903750896453857
-1337.2198486328125 -3240.043212890625 12755.9794921875 43 51 60 2 0.0639088824391365051 0.243279740214347839 -0.967848479747772217
-1229.87451171875 209.153396606445312 12778.70703125 124 124 124 2 0.0574974194169044495 -0.0168868675827980042 -0.998202800750732422
-9.33756065368652344 -2219.021240234375 13015.388671875 45 55 65 2 -0.0358561761677265167 0.166089996695518494 -0.985458493232727051
-17.7200641632080078 2101.549560546875 11818.9404296875 107 113 119 2 -0.0386699512600898743 -0.17422117292881012 -0.98394697904586792
1552.9539794921875 -1632.590576171875 12616.7890625 48 54 61 2 -0.156949907541275024 0.12511172890663147 -0.979649841785430908
-533.3681640625 -2876.87548828125 12400.74609375 117 118 119 2 0.00360222253948450089 0.223641917109489441 -0.974664747714996338
-158.615142822265625 -2007.833984375 13008.9521484375 42 53 61 2 -0.0247350241988897324 0.1507224440574646 -0.988266646862030029
-158.615142822265625 -2007.833984375 13008.9521484375 42 53 61 2 -0.0247350241988897324 0.1507224440574646 -0.988266646862030029
1507.32373046875 -1483.2198486328125 12429.6767578125 137 141 142 2 -0.155934393405914307 0.115458987653255463 -0.980996251106262207
1000.906005859375 -1599.32421875 12392.314453125 77 84 94 2 -0.117176473140716553 0.125450968742370605 -0.985155701637268066
478.06622314453125 -2110.653076171875 13097.943359375 75 87 97 2 -0.0719474107027053833 0.156886041164398193 -0.984992563724517822
1719.7684326171875 2168.03515625 12500.4287109375 85 93 101 2 -0.169851809740066528 -0.167770177125930786 -0.971083700656890869
-2612.458740234375 1156.2611083984375 12251.6943359375 47 59 75 2 0.168616428971290588 -0.0925596281886100769 -0.981326282024383545
-52.7731857299804688 -3353.80859375 12785.84375 125 132 137 2 -0.0325738526880741119 0.251150339841842651 -0.967399835586547852
-3071.52001953125 1217.807373046875 11689.310546875 138 140 144 2 0.212723821401596069 -0.101113699376583099 -0.97186654806137085
-628.796142578125 -2603.089111328125 12873.259765625 45 50 53 2 0.0106910420581698418 0.196097150444984436 -0.980526208877563477
717.9791259765625 -1432.034423828125 12138.3271484375 3 8 15 2 -0.0971909239888191223 0.114987306296825409 -0.988600969314575195
47.4444541931152344 -1686.5943603515625 12626.8056640625 97 109 117 2 -0.0415442660450935364 0.130605444312095642 -0.990563631057739258
-3122.181640625 -1591.3724365234375 13398.5048828125 23 35 46 2 0.190104573965072632 0.114327661693096161 -0.975084304809570312
823.474853515625 -1326.6114501953125 12030.4921875 2 8 14 2 -0.106622524559497833 0.107404597103595734 -0.988481581211090088
823.474853515625 -1326.6114501953125 12030.4921875 2 8 14 2 -0.106622524559497833 0.107404597103595734 -0.988481581211090088
-922.18951416015625 1765.95458984375 12788.2919921875 110 116 123 2 0.0333831757307052612 -0.136340036988258362 -0.990099489688873291
-1383.20751953125 -2892.76318359375 13004.4384765625 135 140 143 2 0.0665422454476356506 0.214471995830535889 -0.974460840225219727
-4134.30224609375 265.77593994140625 13053.638671875 62 71 79 2 0.2668171226978302 -0.0201091505587100983 -0.963537335395812988
-4134.30224609375 265.77593994140625 13053.638671875 62 71 79 2 0.2668171226978302 -0.0201091505587100983 -0.963537335395812988
-4237.1416015625 933.92181396484375 12985.3427734375 106 114 119 2 0.274501979351043701 -0.0690939426422119141 -0.959100961685180664
-1110.141357421875 -106.888748168945312 12248.63671875 107 108 110 2 0.0503278076648712158 0.00794103741645812988 -0.998701155185699463
-1110.141357421875 -106.888748168945312 12248.63671875 107 108 110 2 0.0503278076648712158 0.00794103741645812988 -0.998701155185699463
464.66302490234375 -2301.523193359375 13342.01171875 122 132 137 2 -0.0695528760552406311 0.167748168110847473 -0.98337322473526001
-754.39691162109375 167.835189819335938 12113.94921875 83 85 85 2 0.021861618384718895 -0.014449642039835453 -0.999656558036804199
-1343.8890380859375 1779.1279296875 12648.4970703125 108 114 119 2 0.0663227736949920654 -0.138581305742263794 -0.988127768039703369
-95.3080520629882812 -2855.79248046875 13223.59375 149 149 152 2 -0.028719685971736908 0.208897337317466736 -0.977515757083892822
-2776.36865234375 -753.29193115234375 12587.701171875 49 54 59 2 0.177030399441719055 0.0576597005128860474 -0.982514917850494385
1358.886962890625 2656.53369140625 12532.173828125 149 149 146 2 -0.141363203525543213 -0.204386234283447266 -0.968629300594329834
-1031.1182861328125 108.864044189453125 12415.4873046875 144 144 144 2 0.0433734767138957977 -0.00938517600297927856 -0.999014854431152344
47.5506706237792969 -1968.887939453125 12915.2294921875 22 29 36 2 -0.0405359901487827301 0.148816019296646118 -0.988033711910247803
-692.24310302734375 2354.33447265625 12520.0712890625 139 140 142 2 0.0159593503922224045 -0.184033408761024475 -0.98279041051864624
-4952.44970703125 -3360.483642578125 12714.5751953125 146 151 155 2 0.319081425666809082 0.239817485213279724 -0.916883111000061035
-695.82403564453125 -2992.590087890625 12476.7998046875 143 148 152 2 0.0161213148385286331 0.230828762054443359 -0.972860813140869141
1123.4688720703125 -1721.39990234375 12566.79296875 71 83 91 2 -0.124845795333385468 0.132957413792610168 -0.983227252960205078
-2316.603759765625 -1366.2237548828125 13076.302734375 111 116 121 2 0.136639192700386047 0.101526163518428802 -0.985404551029205322
-1411.88330078125 -3036.097412109375 12820.7587890625 73 79 85 2 0.0694199725985527039 0.227586224675178528 -0.971280276775360107
-1447.8709716796875 1761.2916259765625 12642.740234375 128 133 137 2 0.074375838041305542 -0.137207582592964172 -0.987746059894561768
-356.350006103515625 1051.716552734375 12454.908203125 136 138 137 2 -0.0103504154831171036 -0.0841636508703231812 -0.996398210525512695
-356.350006103515625 1051.716552734375 12454.908203125 136 138 137 2 -0.0103504154831171036 -0.0841636508703231812 -0.996398210525512695
92.33026123046875 -672.54071044921875 11478.1552734375 3 7 13 2 -0.0497875697910785675 0.0571765787899494171 -0.997121870517730713
-210.700119018554688 879.5706787109375 12152.5009765625 146 147 146 2 -0.022442936897277832 -0.0722939744591712952 -0.997130811214447021
-3119.32763671875 -385.9825439453125 13014.4921875 75 81 84 2 0.196456387639045715 0.0281946677714586258 -0.980107128620147705
245.410110473632812 1839.9765625 11499.9267578125 112 121 127 2 -0.0621122904121875763 -0.15709221363067627 -0.985628783702850342
118.465072631835938 729.1671142578125 11745.345703125 85 85 85 2 -0.0508508011698722839 -0.0620950758457183838 -0.996774017810821533
-293.47637939453125 -887.89508056640625 12195.056640625 6 16 23 2 -0.0156679749488830566 0.071322612464427948 -0.997330248355865479
-3790.1005859375 -2950.67138671875 13454.9052734375 155 156 156 2 0.23138013482093811 0.206348523497581482 -0.950727880001068115
-4528.04931640625 245.974151611328125 13502.01953125 125 130 133 2 0.284413367509841919 -0.0179499108344316483 -0.958533704280853271
-619.97369384765625 255.3026123046875 12094.6923828125 129 129 129 2 0.0108947325497865677 -0.0216440297663211823 -0.999706387519836426
-439.10943603515625 1013.6414794921875 12595.587890625 79 80 82 2 -0.00375341204926371574 -0.0802720710635185242 -0.99676591157913208
-517.2601318359375 -149.872848510742188 11444.6982421875 31 35 42 2 0.00264007225632667542 0.0122285988181829453 -0.999921739101409912
-1485.0751953125 -3791.9619140625 13153.13671875 32 40 45 2 0.0721167847514152527 0.273792892694473267 -0.959081113338470459
-920.0489501953125 -2510.006103515625 13444.9150390625 107 110 115 2 0.031368497759103775 0.181516781449317932 -0.982887387275695801
-1553.9134521484375 -1720.8077392578125 13857.568359375 25 37 46 2 0.0755472257733345032 0.121409229934215546 -0.989723384380340576
-444.06378173828125 -1757.71533203125 13128.07421875 5 14 24 2 -0.00322441407479345798 0.131086528301239014 -0.991365671157836914
488.956939697265625 -3571.422607421875 13195.048828125 49 54 55 2 -0.0706666186451911926 0.25821194052696228 -0.963500320911407471
1371.9351806640625 1904.56591796875 12187.3671875 133 136 138 2 -0.147638753056526184 -0.152182787656784058 -0.977263092994689941
-1602.7508544921875 439.00653076171875 13301.7998046875 153 153 153 2 0.0828064382076263428 -0.0332755595445632935 -0.996009945869445801
