ply
format ascii 1.0
element vertex 464
property float x
property float y
property float z
property uchar diffuse_red
property uchar diffuse_green
property uchar diffuse_blue
property int32 number_of_camera_sees_this_point
property float vsfm_cnx
property float vsfm_cny
property float vsfm_cnz
end_header
-1.64769802949 3.53452837143 13.371574865 146 146 146 3 0.0948701141631 -0.172542655027 -0.980422711709
-0.285864824678 3.89793301231 13.6138171667 153 153 151 3 0.0310226336229 -0.187890404162 -0.981699950202
-1.16067079274 5.21198599246 13.8944269258 95 93 84 2 0.154304957629 -0.241363157296 -0.958088621345
-3.3001227281 3.0537039303 13.4879077082 154 156 155 3 0.169977990631 -0.147868575011 -0.974290699548
-2.99403302069 4.09457861452 13.7475547454 88 85 77 3 0.153204079305 -0.193377228299 -0.969089138139
-1.69851941462 -4.44647586673 13.3966782139 93 99 96 3 0.0964519976259 0.205916026421 -0.973804704351
-1.27551008048 4.3990149646 13.7105437745 74 79 75 3 0.0758753745972 -0.209081030128 -0.974950280974
5.36627134587 3.64101697566 13.6510468787 121 122 118 2 -0.145141040554 -0.174520861058 -0.973897606221
-2.06633201407 -4.39330053671 13.4920986538 35 34 29 3 0.112860735131 0.202254845473 -0.972808013921
-1.4392528981 4.82421386884 13.8837060678 72 73 71 2 0.167338403742 -0.224252173258 -0.960056676151
-1.43388379115 4.81658431238 13.8571231295 72 73 71 3 0.0821945849594 -0.225949489036 -0.970665173274
2.85221927426 2.21615872983 12.5145769354 40 53 71 3 -0.120483095695 -0.115172785453 -0.986011690165
-2.73131665855 4.20519726503 13.8544803401 90 78 65 3 0.140745371041 -0.197692119323 -0.970107502542
5.14339330442 -3.66281199178 13.5902274091 147 148 150 2 -0.135496096025 0.16895561452 -0.976265746753
3.42656136927 2.82933379354 12.4484010189 146 146 148 2 -0.0589860617768 -0.146851686924 -0.987398210736
2.53833094893 2.48465725033 12.1548039742 51 64 71 2 -0.0148291687846 -0.131927648185 -0.991148420469
4.99050342729 2.73260788477 12.9187157113 81 85 88 2 -0.133257758329 -0.137797550554 -0.981455146661
4.99050342729 2.73260788477 12.9187157113 81 85 88 2 -0.133257758329 -0.137797550554 -0.981455146661
5.11269406846 -0.488953628178 13.5396918051 140 139 137 2 -0.136303043005 0.0196196551403 -0.990472891906
2.31968757821 -0.826283055054 12.4394086059 96 96 96 3 -0.0956022329465 0.037380264553 -0.9947175121
2.31968757821 -0.826283055054 12.4394086059 96 96 96 3 -0.0956022329465 0.037380264553 -0.9947175121
0.140081939024 -0.855507773981 11.7987422115 0 2 6 2 0.109577860906 0.0407223289543 -0.993143687652
0.13785485421 -0.853332665318 11.8144387426 0 2 6 3 0.0127780618857 0.0401835552288 -0.999110606001
4.04583932747 2.58681162946 12.7886972643 131 134 131 3 -0.174765941502 -0.130519129552 -0.975920909968
0.938363398287 5.10620650399 13.6823892621 142 145 147 2 0.0605093762874 -0.241542557994 -0.96850183689
0.997257157561 -4.03328234344 12.6751660151 150 154 157 2 0.06128928436 0.195542850639 -0.978778124596
-1.74655962269 -3.61028047725 13.1849859425 12 21 26 3 0.100331824187 0.169280663347 -0.980447643718
-1.98158490628 -4.29783168171 13.471023665 34 33 29 3 0.109202705343 0.19822560607 -0.974054094106
-0.687585091179 -1.94080859536 12.8487487587 8 18 27 2 0.143626180159 0.0918513363744 -0.985360265273
1.46626811184 -2.07569188975 12.2646852388 82 94 104 2 0.0396818357122 0.102367827538 -0.993954817786
2.62420137255 0.0622275804448 12.6167073686 98 101 105 3 -0.109640214467 -0.00752289130359 -0.993942870329
0.0932960725444 -0.817377333197 11.7295611105 1 4 9 2 0.112387487308 0.0388525297255 -0.992904594425
0.0932960725444 -0.817377333197 11.7295611105 1 4 9 2 0.112387487308 0.0388525297255 -0.992904594425
2.18099639757 -0.696481477836 12.3711004055 51 55 57 3 -0.0891036670709 0.0309417417306 -0.995541634053
2.63395172272 -2.58877101841 12.6165041578 144 152 155 2 -0.0192721891086 0.126122873851 -0.991827406063
3.12866214611 -4.85039337634 13.0887305419 22 27 30 3 -0.127852084972 0.226544366828 -0.965573142868
2.28316472161 -1.05780908393 12.3165778025 117 121 120 3 -0.0943195886223 0.0493894391796 -0.994316095867
2.28316472161 -1.05780908393 12.3165778025 117 121 120 3 -0.0943195886223 0.0493894391796 -0.994316095867
2.74415979451 -1.00153804056 12.6334489566 151 151 150 3 -0.115250004844 0.0456903074262 -0.992285156692
-2.85097612853 3.57331552607 13.6851489654 110 111 106 3 0.147889246279 -0.170674490521 -0.974165791393
-3.9246900621 3.71309478055 13.9294914186 139 139 137 3 0.19310636119 -0.173616860603 -0.965695148058
4.55974594212 -2.8001164546 13.3077861086 95 99 100 2 -0.110646214925 0.131232794037 -0.985157535063
5.26605076153 -2.59883147736 13.5996977554 157 157 157 2 -0.142073678369 0.119501364264 -0.982616147768
5.25759723019 -2.005942181 13.5346257521 105 104 102 2 -0.142526895494 0.0919326066487 -0.985512293123
-2.44264437244 3.84480144517 13.7953066836 151 151 149 3 0.128653696385 -0.182479066124 -0.974756183275
5.61490694281 -2.16279268646 13.6491131678 123 121 117 2 -0.158099712809 0.0985682680093 -0.982491108027
-2.83142575671 5.07618642246 14.0648841072 28 28 28 3 0.142687071827 -0.233439214238 -0.961845378837
-2.83142575671 5.07618642246 14.0648841072 28 28 28 3 0.142687071827 -0.233439214238 -0.961845378837
-3.66040203255 3.14489437701 13.6847164905 74 78 78 3 0.184347019113 -0.150264977218 -0.971306652487
4.80918588646 -3.60125758093 13.4960832185 101 103 101 2 -0.120672378334 0.167194815814 -0.978511149999
5.49319373196 -2.37320038925 13.6644365155 94 91 85 2 -0.152257655898 0.108431993786 -0.98237472939
2.89787205685 1.20893076941 13.2079182881 123 124 126 3 -0.119304427008 -0.0629296198651 -0.990861401327
2.72390402124 1.9569960903 12.4935200949 103 106 110 3 -0.114558661546 -0.102544671549 -0.988109762831
3.41199284484 -2.36048599685 13.0916963969 152 154 154 3 -0.143510226023 0.110100792259 -0.983505277348
1.44569071119 -4.82577443306 13.1403478321 37 37 36 3 -0.0496527935672 0.22645270556 -0.972755761862
-2.01747071048 3.82534266578 13.7089186938 155 155 155 3 0.109994936897 -0.182744498192 -0.976988005166
4.0398653087 -3.84923805285 13.2124090783 156 156 156 3 -0.169922329396 0.178507721487 -0.969154990361
-3.35117342791 4.0599807563 13.7344790782 87 87 85 3 0.169110875669 -0.191447962299 -0.966824280551
4.23095489028 2.88720203827 12.7083791495 127 131 134 3 -0.183645650782 -0.145209478924 -0.9722080447
-3.62408076963 3.23610621787 13.7129345046 137 137 137 3 0.182407564057 -0.154254492083 -0.97104738929
3.90354644057 2.64369805513 12.6811688096 51 57 62 3 -0.168924891118 -0.134090595772 -0.976465100905
-3.96286623625 3.81457970685 13.9504887522 141 142 139 3 0.194426635451 -0.177882670055 -0.964653325875
3.01215233159 -4.76492198348 13.0758674082 13 20 22 3 -0.122677430604 0.222965106282 -0.967076423764
0.0983814611074 -4.3087451485 12.9495678806 154 159 159 3 0.0136353183592 0.204875957527 -0.978692965194
2.30065615729 1.37444898872 12.6479067473 132 133 136 2 -0.00266828641937 -0.0734033496882 -0.997298765918
0.411749848605 0.338747326099 11.5464453772 153 153 153 2 0.0968974916969 -0.0223346886343 -0.99504373662
4.72833451648 2.51818249164 13.0006874778 97 100 109 3 -0.204274104364 -0.125185436115 -0.970876252089
2.73399982784 -4.36327602976 13.1494431654 22 23 24 3 -0.109913296889 0.204264617386 -0.972725569342
3.79114001357 3.80604772402 13.2660522197 81 84 83 3 -0.158065585277 -0.184469816068 -0.970044410174
3.79114001357 3.80604772402 13.2660522197 81 84 83 3 -0.158065585277 -0.184469816068 -0.970044410174
2.4404265038 1.20884109007 12.7578667254 139 139 139 2 -0.00961173924196 -0.0647211912454 -0.997857094915
5.60425579658 -2.23913381898 13.652814467 93 93 87 2 -0.157529090587 0.102134261519 -0.982218498219
-1.81020354708 4.5231139368 13.8987261138 77 78 74 3 0.0991539071424 -0.212335389102 -0.972153375365
-1.81020354708 4.5231139368 13.8987261138 77 78 74 3 0.0991539071424 -0.212335389102 -0.972153375365
0.974701178409 -3.61425644478 12.7089391837 6 6 6 3 -0.0284584686751 0.174234204688 -0.984292922599
-4.06503356975 3.63959002488 13.9871548858 147 147 145 2 0.280783750248 -0.166636107199 -0.945194632536
-4.16375099642 3.59854192046 13.9696970912 147 147 144 3 0.203225139823 -0.167880224453 -0.964632454763
2.68606496339 -4.47934793854 13.1627641595 28 28 27 3 -0.107515156351 0.209490348356 -0.971881826716
5.40104705881 -2.71531020429 13.6532598187 150 152 151 2 -0.147831498976 0.124517859795 -0.981142777838
-4.36045907892 4.40893705903 14.2835416463 85 76 64 3 0.207523338356 -0.200299049777 -0.957504232208
-3.59344724592 4.064589731 13.8582937959 145 145 144 3 0.178782556076 -0.190237851802 -0.965321893145
-3.60751398562 4.07473761262 13.9049123336 145 145 144 2 0.261870072307 -0.187170269759 -0.946779465001
3.24617520408 1.89833728921 12.6815364794 71 79 82 2 -0.0497019530921 -0.0993229513076 -0.993813195325
3.2694728711 -0.0746046397044 13.0937274144 50 51 47 3 -0.137646450817 -0.000643135416768 -0.990481216861
0.525512652495 -4.49715119388 12.9910521933 128 133 136 3 -0.00663878294863 0.213214243998 -0.976982913217
4.46009042009 -0.879425517786 13.2595992338 41 45 46 3 -0.191197293888 0.0379383718296 -0.980818165999
1.62859695458 5.0393308609 13.6856582675 79 80 68 3 -0.056561371823 -0.237909996923 -0.969638924849
2.20658020394 -0.619566231426 12.385702625 149 152 151 2 0.00206228789058 0.0276627496797 -0.999615185583
0.000889420561971 3.87931890333 13.6225977525 96 97 91 3 0.0177791139616 -0.187028893143 -0.982193512622
1.54431232921 5.05106711107 13.6332937459 154 154 152 3 -0.0528486175151 -0.239036644971 -0.969571300105
2.87466197157 1.90572707076 12.5388075326 96 101 104 3 -0.12161938062 -0.0996885054306 -0.987558063175
2.73387751497 -2.33891992452 12.6934071176 157 157 157 3 -0.11387292541 0.111651639984 -0.987201533704
3.96882645392 -4.82526275959 13.3525854616 158 159 157 2 -0.081030748403 0.225136519581 -0.970951886225
3.07121650916 -1.56769226971 12.8678516212 63 70 76 3 -0.129367100463 0.0728903734434 -0.988914125077
3.07121650916 -1.56769226971 12.8678516212 63 70 76 3 -0.129367100463 0.0728903734434 -0.988914125077
2.65756793725 -4.41922947987 13.1623358956 120 125 124 3 -0.106259734138 0.206779278726 -0.972600225576
2.65756793725 -4.41922947987 13.1623358956 120 125 124 3 -0.106259734138 0.206779278726 -0.972600225576
1.38585737346 4.82846773424 13.5748751719 147 147 145 3 -0.0458565210528 -0.229929258313 -0.972126388721
3.73392954497 4.70325928012 13.7587539105 26 28 27 2 -0.0687183688093 -0.222853045106 -0.97242701838
-2.14062964771 3.31981387206 13.3578717552 96 95 95 3 0.117852091369 -0.162300322537 -0.97967825834
2.79872099472 2.47921625892 12.3804673707 55 61 69 3 -0.118466357637 -0.12900859741 -0.984541773569
-2.46084736656 -4.68193375754 13.6650480465 140 142 141 3 0.129405648297 0.213060373959 -0.968431440649
1.75667102863 2.5426479683 11.8771771594 156 156 155 2 0.0253410246451 -0.136765559355 -0.990279260736
2.39297940014 1.71507371569 12.556457201 108 112 116 3 -0.0983149598366 -0.090392627305 -0.991041543832
-3.36900922251 4.74147362682 14.1138760573 92 82 64 3 0.166146006622 -0.217785295653 -0.9617510434
0.40429406334 -4.94183603383 13.0983008039 9 10 15 3 -0.00090421186011 0.232432296966 -0.972612157917
0.332207997067 0.0902323293477 11.4411251978 89 92 94 2 0.101631551946 -0.00913131944941 -0.994780200172
-4.24213519835 4.02637508444 14.1301897619 151 151 147 3 0.204510755472 -0.185284196585 -0.961168620686
3.02542907084 -1.94783612046 12.9581825084 73 78 82 3 -0.126482913349 0.0910980244257 -0.987776909315
0.736299516961 5.31689130382 13.755212926 41 60 79 3 -0.0158940230954 -0.249587518715 -0.968221798211
3.5201286067 2.94771869458 12.6502158123 109 109 111 3 -0.150839663154 -0.149361246196 -0.977209606049
4.18122574646 -4.07359342784 13.2015564418 154 158 161 3 -0.176060753453 0.188666024234 -0.966130292659
2.37098715344 0.881767272517 12.6736408078 148 148 148 2 -0.00618841783984 -0.0485479319939 -0.99880168291
-3.78425647538 3.55100201107 13.8631686917 73 75 64 3 0.187794674325 -0.167115772581 -0.967887120924
-1.35550301465 4.58367114248 13.8033824694 80 80 69 3 0.0790431044133 -0.216315900812 -0.97311850188
-1.35550301465 4.58367114248 13.8033824694 80 80 69 3 0.0790431044133 -0.216315900812 -0.97311850188
1.01386124271 -1.7613214946 12.021650875 8 16 23 2 0.0634655204933 0.0873541533701 -0.9941535996
5.30580885086 -2.4724781171 13.5994234987 110 109 106 2 -0.144007525522 0.113557565745 -0.983039425382
5.55270852124 -2.49253092465 13.6880738058 148 148 147 2 -0.154721339791 0.113828976871 -0.981378760234
1.57169964262 -3.87866135031 12.8945789514 92 92 84 2 0.0328676965026 0.186431097132 -0.981918102771
1.57169964262 -3.87866135031 12.8945789514 92 92 84 2 0.0328676965026 0.186431097132 -0.981918102771
-3.53535519124 4.19865386968 13.893915824 125 126 121 3 0.175781704955 -0.195928483173 -0.964734586135
-2.67829946978 5.14996754073 14.0800897208 88 82 65 3 0.135829211063 -0.23665656739 -0.962052022779
-2.67829946978 5.14996754073 14.0800897208 88 82 65 3 0.135829211063 -0.23665656739 -0.962052022779
4.87195949874 -3.91057150918 13.5408233825 72 76 76 3 -0.204149195936 0.177370987092 -0.962737055865
3.88647665663 1.64889235346 13.2710205578 40 44 47 2 -0.0792022518952 -0.0842433510755 -0.993292535507
-1.04714034947 -0.485862947133 12.0888584669 149 150 152 2 0.167534598295 0.0208271156283 -0.985646178722
-3.37444022866 5.03378064322 14.2199646653 41 32 26 3 0.165172700086 -0.229226661398 -0.959256543814
-2.22118600273 4.06054519478 13.8468487378 160 159 156 3 0.118241443528 -0.191920690876 -0.974261468727
-2.22118600273 4.06054519478 13.8468487378 160 159 156 3 0.118241443528 -0.191920690876 -0.974261468727
2.89842621238 2.34814742713 12.5000727105 56 65 79 3 -0.122701587854 -0.121729112187 -0.984949919328
-0.184685407278 -0.899032899879 11.9578303706 9 17 26 2 0.125195427457 0.0425660000174 -0.99121856348
-3.07776541144 4.81111374525 14.0449223805 74 85 84 3 0.153908652281 -0.221895656065 -0.962847051495
-4.03679143012 4.35126480943 14.1773689454 153 153 151 3 0.194862212582 -0.199306928384 -0.960367360131
-4.19006389692 4.63764283167 14.3553817929 101 92 77 2 0.279335955303 -0.206098426082 -0.937813874306
4.42489867456 1.73537960938 13.3469802759 95 103 106 3 -0.188297035524 -0.0867603469634 -0.978272389781
4.73438572073 2.21291475042 13.1135981044 106 110 113 3 -0.203855064741 -0.110122614099 -0.972787809568
3.53161336699 -4.40045498621 13.0765069039 63 72 77 3 -0.146992891363 0.205683625685 -0.96751606499
3.18946349413 -1.72907657965 12.9837236817 150 153 154 3 -0.134171337297 0.0802773002458 -0.987701173085
2.95205115699 -0.0981151176478 12.8658344129 148 148 147 3 -0.124027428101 0.00050925073567 -0.99227865932
2.95205115699 -0.0981151176478 12.8658344129 148 148 147 3 -0.124027428101 0.00050925073567 -0.99227865932
2.83687928575 0.753093250382 13.0403505072 95 96 90 3 -0.117477914 -0.0412027134221 -0.992220376796
-4.429734082 3.56461177051 14.0202865344 97 84 68 3 0.214184626486 -0.165598141746 -0.962653728621
-0.162049837098 -4.33398084924 13.0204547044 128 138 140 3 0.0259093252065 0.205304577638 -0.97835511818
-0.162049837098 -4.33398084924 13.0204547044 128 138 140 3 0.0259093252065 0.205304577638 -0.97835511818
3.55145178615 -1.28941900874 12.9361229254 91 99 101 3 -0.151686457517 0.0588533493549 -0.986674972762
-0.140325315736 -3.67305555362 12.5567194897 119 128 135 3 0.0255996589175 0.178369620094 -0.983630487577
3.89482351061 0.860381739881 13.4367049386 63 69 67 3 -0.164039651264 -0.0452524650676 -0.985415246086
2.91663957611 -1.31889591413 12.6574578435 71 76 79 3 -0.123327696205 0.0613739129706 -0.990466315508
3.50767144115 -3.7555143452 13.0361030595 162 162 163 3 -0.146979128141 0.176321538563 -0.973297411344
-0.910141125085 4.75864427333 13.7318859823 48 49 44 3 0.0589857107385 -0.225055704116 -0.972558798209
1.8720059316 -4.19205862186 13.0925600581 148 153 153 3 -0.0701002921045 0.197642702987 -0.977764445561
5.55060378191 0.467156997042 13.6185592125 151 151 151 2 -0.15606566513 -0.0260525791616 -0.987403043993
-1.78107956762 -3.27679058931 13.1530789438 101 100 96 2 0.191170110779 0.152938549147 -0.969568867554
4.36303279637 3.0026263373 12.7617317429 95 100 107 3 -0.18913544313 -0.150161061603 -0.970401689884
1.11111674474 4.5053505029 13.6524775882 146 148 147 3 -0.0332699560871 -0.214886694018 -0.97607213809
5.55936694613 -1.62615657079 13.6329498555 100 101 95 2 -0.156005702659 0.0734195908429 -0.985023748149
1.36843110934 -3.77086052523 12.8519439646 35 32 27 2 0.0428707024209 0.181622240554 -0.982433440295
3.87867580473 2.3308112898 12.7552749797 111 114 117 2 -0.0805319596426 -0.120061291154 -0.989494764939
5.67198408463 1.02583002212 13.5978411336 90 93 93 2 -0.161642506273 -0.052609091513 -0.985446083586
-3.71458670878 4.75673292895 14.2521225968 148 148 140 3 0.179907315794 -0.216567955731 -0.959547642524
3.13822465639 -5.20682544373 13.3187828995 30 34 37 3 -0.126539939614 0.240000263951 -0.962490268515
-4.31649072145 4.53193712605 14.3423503555 102 94 80 3 0.20496101065 -0.205115613867 -0.957036346782
3.52676939177 -2.43551418018 13.0899328658 66 75 77 3 -0.148795789731 0.113609265275 -0.982320084189
1.55638711738 -2.19593064039 12.3531681072 97 107 115 2 0.034931319165 0.107996901345 -0.993537353219
3.20684856995 -4.28779715264 12.9876203575 151 157 158 3 -0.132747255637 0.201787000669 -0.970391762373
-1.68978898666 -4.57938327826 13.3700298918 62 56 48 3 0.0960417559132 0.212185411895 -0.972498499793
2.2020909079 -2.35547651986 12.4258532086 107 119 127 3 -0.0894039459858 0.114257166689 -0.989420150544
2.2020909079 -2.35547651986 12.4258532086 107 119 127 3 -0.0894039459858 0.114257166689 -0.989420150544
-1.7697615649 -4.4458597683 13.4166217143 52 51 43 3 0.0996307153232 0.205632127019 -0.973544631181
1.98776627539 5.12799956306 13.8069008749 155 155 153 2 0.0119611322922 -0.241561673907 -0.970311748364
1.12237904832 4.8216278911 13.675434982 144 143 140 3 -0.0336499923902 -0.228688837567 -0.972917824682
3.91941205245 4.72442063494 13.6676415763 126 128 130 2 -0.07754419949 -0.224574730014 -0.971366608323
2.68408410809 0.585128550339 12.8630446926 149 149 149 2 -0.0216563233634 -0.0332683862087 -0.999211798438
-1.74853470429 -3.81167392196 13.2406333948 152 153 155 2 0.188146396215 0.177114160881 -0.966039081822
1.99226185318 -2.17308956461 12.3159671085 42 47 54 2 0.0129207271605 0.107103965428 -0.994163867478
2.65946832546 2.00020391454 12.4660078916 32 39 50 3 -0.111558191045 -0.104868496528 -0.988209172416
-3.09604875525 3.72229533554 13.6772641507 146 146 145 3 0.158691301857 -0.177162955961 -0.971303432378
-2.95993057183 3.72467563969 13.7082677371 47 40 35 3 0.152421050938 -0.177193168782 -0.972301601443
-3.24331871353 4.62524656041 14.0075854481 23 19 17 3 0.16162633826 -0.213970297833 -0.963376166628
5.59033247172 1.34194729512 13.5520793612 26 26 28 2 -0.158076867342 -0.0677763624143 -0.985097999546
-0.898913445987 4.98672712231 13.8371791722 30 30 25 3 0.0580693654114 -0.233973114539 -0.970507357249
-0.898913445987 4.98672712231 13.8371791722 30 30 25 3 0.0580693654114 -0.233973114539 -0.970507357249
2.38842750393 0.952685725808 12.7334612558 110 115 117 2 -0.00703831289648 -0.0519614502009 -0.998624288631
2.38842750393 0.952685725808 12.7334612558 110 115 117 2 -0.00703831289648 -0.0519614502009 -0.998624288631
5.17023814366 0.777583553812 13.5590040266 136 138 137 2 -0.13877195526 -0.0410418844808 -0.989473551012
2.55327133845 1.16965303243 12.9014108509 141 142 142 3 -0.104596434997 -0.0620614968161 -0.992576423455
-0.735493124641 4.4512786041 13.6897236665 50 51 46 3 0.0513094612645 -0.211942492041 -0.975934280191
-0.735493124641 4.4512786041 13.6897236665 50 51 46 3 0.0513094612645 -0.211942492041 -0.975934280191
2.17358413863 -2.44505620098 12.4640650384 48 55 65 3 -0.0878092448389 0.118497070649 -0.989064194463
-1.50388116576 -5.04758386743 13.4243230843 114 114 113 3 0.0868737230102 0.232765878929 -0.968644930744
-1.50388116576 -5.04758386743 13.4243230843 114 114 113 3 0.0868737230102 0.232765878929 -0.968644930744
-1.43798376938 -5.13130874714 13.432757917 16 21 15 3 0.083756808016 0.236448783912 -0.968027256691
0.511275511634 -4.14766053091 12.7774833605 142 147 151 2 0.0844731183527 0.199641873923 -0.976220986484
3.81380302722 -3.94195071053 13.1154964699 115 121 122 3 -0.160239073865 0.183899253913 -0.969796114458
3.81380302722 -3.94195071053 13.1154964699 115 121 122 3 -0.160239073865 0.183899253913 -0.969796114458
2.77795583695 -4.87282652392 13.1505336212 14 18 21 3 -0.111388199966 0.227350420125 -0.967421549986
-2.3209238789 1.84830136964 12.1462628978 160 160 160 2 0.227771655635 -0.0970190589005 -0.96886912176
3.88036716076 -2.7670211146 13.0287706249 150 151 153 3 -0.165286751323 0.129436502374 -0.977714928642
3.43569039965 -5.0171316169 13.2353701299 64 67 73 3 -0.140753584456 0.232047912445 -0.962466723992
0.312156019838 -4.98554889734 13.1153285051 5 6 12 3 0.00341109563446 0.234222981289 -0.972176917779
-2.25538382067 4.52262374622 13.9737820132 115 117 112 3 0.118619509573 -0.21114092132 -0.970231376164
4.31647713262 2.67118128855 12.8002888082 104 109 115 3 -0.187079027809 -0.134174871257 -0.973138500562
0.380539541499 4.32330183947 13.7942392505 85 82 75 3 0.000229067716795 -0.205517148216 -0.978653487868
2.77021692846 0.855173728749 13.0480890647 148 149 149 3 -0.11425698776 -0.0461941914324 -0.992376661065
5.58350322286 -1.34763347238 13.6546071709 38 39 33 2 -0.15709445635 0.0601767061076 -0.985748495219
4.49055888262 -3.65294948863 13.4112269012 94 94 94 2 -0.106212298059 0.170541361961 -0.979609407673
4.49351386837 -3.66281349159 13.4503538793 94 94 94 3 -0.188631218836 0.16745238538 -0.967666245103
3.21658005069 -1.50795506718 12.9371894128 59 67 69 3 -0.135841244908 0.0696634330952 -0.988278382983
-1.761649127 3.38818114848 13.3016260173 145 145 145 2 0.188631761191 -0.164491571927 -0.968173838437
4.28292762854 -0.305875750718 13.3724447275 147 147 147 2 -0.0980610099247 0.0109777138294 -0.995119856164
0.763464882887 -4.97676568373 13.0511229332 154 155 157 3 -0.0177758868094 0.23449624398 -0.97195448937
-1.2338975975 4.87882195028 13.7922743302 145 142 137 3 0.0733697594874 -0.229494366144 -0.970540681425
1.69531422869 -4.44842853918 13.0750069966 57 59 56 3 -0.0617049113004 0.209747266626 -0.975806634567
-4.03229365341 3.46143582948 13.8995417179 152 154 150 3 0.19836999188 -0.162499151843 -0.966562658068
3.89509707277 -4.84220953133 13.3926774503 34 42 44 3 -0.160648133306 0.22194045924 -0.961735207746
5.33585562191 -2.13495402196 13.509654562 158 158 158 2 -0.146240005772 0.0980957799757 -0.984373444716
3.84554180187 4.20148219875 13.5434686637 119 119 119 3 -0.158060154721 -0.19985608645 -0.966992519205
2.0824105042 1.98052530732 12.1547388979 121 125 128 2 0.00842944809268 -0.106332588269 -0.994294888389
4.37794079282 2.64005133606 12.8186358077 49 60 68 3 -0.189784295433 -0.132499291187 -0.972844211085
5.42230577362 -1.36217584969 13.6401394285 130 131 127 2 -0.149769722111 0.0609765218942 -0.986838838978
2.32774457825 -5.04613134325 13.3254522401 56 53 47 3 -0.0897616822061 0.233746471373 -0.968145354545
3.77296977038 -2.3162566743 13.23544964 154 157 156 3 -0.159230793897 0.106975148685 -0.981428485341
-1.78761148698 3.70125954839 13.5912952459 87 87 88 3 0.100205331383 -0.178292796585 -0.978861874959
-1.78761148698 3.70125954839 13.5912952459 87 87 88 3 0.100205331383 -0.178292796585 -0.978861874959
4.95572580215 -1.15790576996 13.5711792545 148 148 146 2 -0.128628635461 0.051616272213 -0.990348642945
4.64870399227 -3.80788655828 13.4528063661 71 75 76 3 -0.195264639716 0.173789336879 -0.965230017594
3.57376756604 -2.27069687508 13.2005057353 45 50 53 3 -0.150343343327 0.105137115979 -0.983027500104
1.49546905365 -4.78872067308 13.1470461318 153 158 155 3 -0.0519811996544 0.224675431366 -0.973046199018
3.91611200099 1.46683824354 13.4155413402 79 81 76 2 -0.080129447542 -0.0748921413702 -0.993967020981
3.09806112362 2.01765146263 12.5574993072 86 92 92 2 -0.0425792358325 -0.105940206601 -0.993460457845
4.07632201028 -3.73740563525 13.2340314825 153 153 152 2 -0.0874174544688 0.176244606226 -0.980457050273
1.54694087591 -1.52314496021 11.8620953185 92 101 108 2 0.0364112301292 0.0757862152299 -0.996459066847
5.63168036218 0.173439932977 13.6608227993 145 146 143 2 -0.159531386545 -0.0120352544956 -0.987119490921
5.40572456456 -0.262363356234 13.6239075762 46 47 42 2 -0.149383339465 0.00870238412271 -0.988741061351
-0.512761129601 3.48134277181 13.264709752 73 75 70 3 0.0423026418156 -0.171568753105 -0.984263506107
-0.512761129601 3.48134277181 13.264709752 73 75 70 3 0.0423026418156 -0.171568753105 -0.984263506107
0.33067440075 0.184504197516 11.4141630415 145 145 145 2 0.101849893762 -0.0142053371729 -0.994698350022
2.80971938391 1.4186709866 13.069878259 127 129 130 3 -0.11582613506 -0.0735818969537 -0.990540262118
3.87667916619 -1.78320772856 13.2329988139 157 158 159 2 -0.0788898044595 0.0831655738148 -0.993408217242
-1.69205191918 -3.98777633677 13.2519034615 85 83 77 3 0.0971876767282 0.18628453705 -0.977677158753
-0.925027908717 -5.36142717845 13.2717627954 68 69 65 3 0.0605589712013 0.248833720905 -0.966651121319
3.49121319845 2.22990346512 12.7671671499 22 22 30 3 -0.149336416907 -0.113952157293 -0.982198320317
3.88081433995 -3.66324590469 13.1832648397 75 75 75 3 -0.163167022345 0.170381780482 -0.971774959391
-2.3228078009 3.41892123495 13.4931504227 151 151 151 3 0.125365559152 -0.165674639032 -0.978179631029
4.94805785292 -4.58136159231 13.6823384942 58 57 51 2 -0.124973814628 0.209908647591 -0.969700936023
3.71228868092 -4.11895457092 13.0773003447 152 156 157 3 -0.155633869264 0.192522266322 -0.968872166856
-1.68960181869 -4.27068890391 13.3765295148 110 113 114 3 0.0962877006067 0.198134844262 -0.975433884075
0.175582467533 3.50965501686 13.3462181095 147 147 147 3 0.0098741717544 -0.172371221268 -0.984982569801
4.49188147031 -2.72800641944 13.3707796845 152 154 153 3 -0.190381207843 0.124924467691 -0.973729363361
5.52323119358 0.212216091947 13.6225237969 60 61 57 2 -0.154812144391 -0.0139138499999 -0.987845941798
1.69176677703 5.27990457266 13.7385920856 158 158 158 2 0.0256138464498 -0.248878806244 -0.968195884453
-1.7924429249 4.29960550216 13.8201143269 63 62 57 3 0.0989029609844 -0.20321065712 -0.974127113441
-1.84810943846 -4.51859004458 13.4406932282 30 29 23 3 0.103034600846 0.208607782592 -0.972556766503
-2.91971705296 4.01269706375 13.7698730999 94 87 73 3 0.149869927367 -0.189636613532 -0.970348885545
-1.49515074319 5.14498944688 13.9502013901 19 20 20 3 0.0843143310345 -0.239186860704 -0.96730591813
4.2999935651 4.44800848712 13.5911440686 68 68 66 3 -0.177466480613 -0.209668929613 -0.961532416622
3.4565749831 1.60834423301 13.3940636496 42 45 52 3 -0.143946806855 -0.0811883923377 -0.986249340555
-2.84191787108 5.03204858166 14.1038364177 78 81 80 2 0.225604208418 -0.228213876132 -0.947112014434
4.13913902492 4.7292827211 13.5408568529 12 13 13 2 -0.0881576038276 -0.225898891965 -0.97015355872
4.59737421417 2.55395577488 12.8687951512 110 114 118 2 -0.114832044685 -0.129817392966 -0.984866004082
4.60202453038 2.56035877173 12.9247182739 110 114 118 3 -0.199186727245 -0.127786066562 -0.971594240865
-1.55433899776 -2.72274555854 13.0544809008 139 140 142 3 0.0924940018841 0.128344040479 -0.987407042151
-0.428994967434 -1.01140928039 12.1100473715 9 18 28 2 0.136468614931 0.0479391938784 -0.989483779973
1.82422971686 -4.06612689625 13.0383917001 149 153 156 3 -0.068097476851 0.192326297351 -0.9789654381
-1.61062428888 4.65880049634 13.8714520231 23 23 19 3 0.0902047761106 -0.218743026434 -0.971604130679
0.158060975478 -4.09560310508 12.7954129617 60 66 75 2 0.101467673174 0.196702679693 -0.975198629563
0.158060975478 -4.09560310508 12.7954129617 60 66 75 2 0.101467673174 0.196702679693 -0.975198629563
0.326739805727 -4.84194909995 13.0771405722 10 13 19 3 0.00274093971283 0.228123567822 -0.973628330039
5.61997638871 0.102983998356 13.6530462992 38 40 37 2 -0.159056169375 -0.00869161357033 -0.987231275253
3.05416533123 -5.1586081182 13.2891270688 12 17 19 3 -0.122953815487 0.238301977626 -0.963376627658
3.05416533123 -5.1586081182 13.2891270688 12 17 19 3 -0.122953815487 0.238301977626 -0.963376627658
1.98603919163 -0.392785324407 12.281309756 63 67 68 2 0.013336059094 0.0161249485384 -0.99978104381
4.60565390049 2.65515716551 12.8480551099 37 44 53 3 -0.199925279579 -0.132754826073 -0.97077599823
4.60565390049 2.65515716551 12.8480551099 37 44 53 3 -0.199925279579 -0.132754826073 -0.97077599823
-0.941935843778 4.53000470764 13.7125503174 135 133 128 3 0.0606182811545 -0.215111185708 -0.974706418248
-0.941935843778 4.53000470764 13.7125503174 135 133 128 3 0.0606182811545 -0.215111185708 -0.974706418248
2.81496190806 1.01673316135 13.1091437971 84 87 80 3 -0.116002693819 -0.0539134885132 -0.991784609067
3.96372543241 1.93335944853 13.210914748 31 35 39 3 -0.168293091771 -0.0970880071928 -0.980944113659
3.13144118449 -4.61467425566 13.0630941488 160 161 161 3 -0.128426101997 0.21612037858 -0.967883628484
1.93767885039 0.605618095061 12.3433290438 102 102 102 2 0.0157509332631 -0.0352127736313 -0.999255707351
-0.341112280027 3.93155251573 13.6122058782 68 69 55 3 0.0335642355666 -0.189416857414 -0.981322931668
3.90661471975 0.54594993195 13.4243228229 116 116 118 2 -0.0798295539055 -0.0303630297496 -0.996345988474
-3.10897805509 4.4398796198 13.9014925266 46 45 40 3 0.156762160433 -0.207083424961 -0.965682183828
4.10142234401 -2.75089241671 13.1638542881 155 156 155 3 -0.174400183917 0.127629657457 -0.97636839686
4.10142234401 -2.75089241671 13.1638542881 155 156 155 3 -0.174400183917 0.127629657457 -0.97636839686
-1.30526418289 4.14017581977 13.5991878394 74 75 70 3 0.0777952203567 -0.198493069696 -0.977009930846
-0.761179511639 4.58027959833 13.6776308701 55 52 45 3 0.0524434333155 -0.217790104344 -0.97458563336
1.42637727414 5.06592650911 13.5521787393 156 156 154 3 -0.0476398476494 -0.240632927001 -0.969446357133
1.42637727414 5.06592650911 13.5521787393 156 156 154 3 -0.0476398476494 -0.240632927001 -0.969446357133
-1.86518547969 4.9997357443 14.0298715998 68 61 52 3 0.100564669373 -0.23173674338 -0.967566446835
0.442438252935 2.29516684081 11.8819602803 45 47 47 2 0.0929824091943 -0.12354445517 -0.987973197601
2.93323231487 0.46635500696 13.0101196475 85 86 80 3 -0.1222612745 -0.0271909709325 -0.992125411356
2.77976284068 -4.96012960089 13.1943653833 144 148 149 3 -0.111157653964 0.230811516932 -0.9666281703
2.77976284068 -4.96012960089 13.1943653833 144 148 149 3 -0.111157653964 0.230811516932 -0.9666281703
2.70076432905 -0.587526437069 12.7538595129 152 152 152 3 -0.112590202754 0.0248626125767 -0.993330406632
3.18429648342 -0.117700703874 13.0080448737 148 148 145 2 -0.0461157694673 0.00187490305594 -0.998934342459
4.12509862763 -2.39272638013 13.3352940152 47 53 52 3 -0.174475120572 0.109784549234 -0.978522245557
2.67731013831 0.75988315891 12.9524898957 150 150 150 3 -0.110365990171 -0.0417501954037 -0.993013730719
4.35971257338 -3.55195371795 13.434204067 161 161 161 3 -0.182965365423 0.162703976298 -0.969562319375
0.205054543751 -0.906868358454 11.8013866089 8 15 23 2 0.106210531711 0.0434246510071 -0.993394998296
2.02077672495 2.01852578617 12.131769217 49 56 65 2 0.0115908607105 -0.108395280109 -0.994040298579
3.88972342965 2.44454421843 12.7291380138 120 121 125 3 -0.168112094088 -0.124198503811 -0.977912601142
-3.3028707663 4.26640940451 13.8517220033 91 92 85 2 0.249251914378 -0.196610128658 -0.948271026916
5.45214809013 -0.594329721922 13.6391849184 44 44 39 2 -0.151383866938 0.0244985613686 -0.988171414949
3.03603666972 -4.60013250495 13.0395547415 145 149 151 2 -0.0378537922552 0.218706304468 -0.975056225455
1.24831319765 -3.45523873364 12.8362684041 150 157 157 3 -0.041472189717 0.165498791058 -0.985337610993
-3.40957788767 4.02066447596 13.7563256421 153 153 148 3 0.171574663625 -0.189428684951 -0.966787933375
4.39872349721 4.14987155363 13.4854530288 151 151 151 3 -0.183119918981 -0.197210589214 -0.963106992381
2.00506523046 3.8678916815 13.0867501434 96 97 90 3 -0.0764242907434 -0.190730871798 -0.978662895142
2.00506523046 3.8678916815 13.0867501434 96 97 90 3 -0.0764242907434 -0.190730871798 -0.978662895142
0.527444206384 -4.98557722418 13.1032076755 29 33 36 3 -0.00667587041829 0.234355218619 -0.972128111033
1.65882128003 4.43110738734 13.5890206823 149 151 148 3 -0.0585255925555 -0.211942100651 -0.975528216397
1.65882128003 4.43110738734 13.5890206823 149 151 148 3 -0.0585255925555 -0.211942100651 -0.975528216397
-2.36804076698 -5.32978751602 13.8258787652 97 90 80 3 0.123567138843 0.239876231636 -0.962907345332
3.7569958951 3.7340678903 13.2126236304 146 146 146 3 -0.156980632213 -0.181665437098 -0.970749581547
2.28137152914 1.75584239725 12.402757252 112 116 119 2 -0.00172169646686 -0.0936563212614 -0.995603098252
3.10753700571 -0.680888402994 13.0476649739 150 149 148 3 -0.130270772354 0.0290151497004 -0.991053806288
-3.2216503696 5.01086287777 14.1393005697 81 68 53 3 0.159199399807 -0.229300451544 -0.960248329352
1.30118148447 -3.69568810185 12.8311925782 17 16 12 2 0.0462208509389 0.178194363681 -0.982909152308
1.30118148447 -3.69568810185 12.8311925782 17 16 12 2 0.0462208509389 0.178194363681 -0.982909152308
5.55836344627 -1.97037871082 13.6444552187 120 121 115 2 -0.155673382319 0.0895964224834 -0.98373689527
4.47370604848 2.65156723711 12.8419872159 52 60 69 3 -0.193957854671 -0.132785875137 -0.971981616069
2.68890564915 0.957277996732 12.977905779 139 141 140 2 -0.0217543278397 -0.0515469298463 -0.998433604825
4.19472352236 -3.43942708041 13.3192872101 155 155 155 3 -0.176630148677 0.158601758846 -0.97141508773
-0.474477089856 3.19947546614 13.0160546833 149 149 149 3 0.0410674130317 -0.160280809854 -0.98621677616
-0.474477089856 3.19947546614 13.0160546833 149 149 149 3 0.0410674130317 -0.160280809854 -0.98621677616
4.42217168096 2.97963606863 12.7658167008 137 139 142 3 -0.191845630692 -0.148960224376 -0.970054692035
-1.46492654187 -1.39548753863 12.5830572581 19 27 38 2 0.183255566294 0.0655073754692 -0.980880309305
1.0921654366 4.75090824851 13.7331262721 146 145 143 3 -0.0322147025176 -0.224984419394 -0.97382966887
4.76504462959 1.27142414208 13.4790821061 24 25 29 2 -0.120127808175 -0.0650074626832 -0.990627750216
2.88298454534 -0.13530050544 12.8240748536 96 105 104 3 -0.120970907393 0.00235268660554 -0.992653264957
2.88298454534 -0.13530050544 12.8240748536 96 105 104 3 -0.120970907393 0.00235268660554 -0.992653264957
5.31880942425 2.30942904947 13.1430733556 134 139 142 2 -0.147695502908 -0.115857146215 -0.982223579483
-1.21054541115 -2.66709815272 12.9753094112 144 146 145 3 0.0765164768637 0.126336633286 -0.989031993344
3.69571707949 2.573463319 12.5931338697 133 136 135 3 -0.159905995545 -0.131475089029 -0.978337556038
-2.96262260664 3.40788555226 13.5826223465 158 158 156 3 0.153759356869 -0.163812068555 -0.974435049847
3.65282469544 0.274783259788 13.366984665 69 70 65 3 -0.153601378352 -0.0174073682569 -0.987979554494
3.58527583729 -1.80085367396 13.2092225625 45 53 59 2 -0.0649156731135 0.0842031789644 -0.99433182592
5.60318980592 1.88221972249 13.4485345364 37 43 50 2 -0.159103586407 -0.0937824552452 -0.982797486709
5.4388199963 -2.21905654255 13.5724419325 127 127 122 2 -0.150511523586 0.101695987185 -0.983363720837
-2.15001647286 4.03761083092 13.8078629869 83 85 83 3 0.115274479472 -0.191307368127 -0.974737546872
-3.87780094789 3.6441546706 13.904248188 140 139 140 3 0.191387451096 -0.17082074007 -0.966535627033
2.84649779967 -4.33242217808 13.1117042554 66 69 66 3 -0.115338689585 0.203088787634 -0.972343525212
-1.31609875938 4.0736547872 13.5705716369 145 146 141 3 0.0784376000635 -0.195740262076 -0.977513832485
1.64139302672 -2.41598642525 12.5292719468 93 103 113 3 -0.0615947429991 0.11689934242 -0.991231875686
0.604195903314 -1.55483521325 11.9092439334 5 12 20 2 0.084974921162 0.0770193963694 -0.993401870019
-3.02859964534 2.8952302057 13.2285801745 150 152 152 3 0.159781732655 -0.14255909717 -0.97680433134
-4.30396911483 3.33824935954 13.9063808136 145 142 137 3 0.210181516363 -0.156562733695 -0.965044994079
5.1807240435 2.09618173631 13.1693244365 52 58 67 2 -0.141174376919 -0.105607056297 -0.984335788723
1.81006748148 4.30330612334 13.5398410763 152 152 150 3 -0.0656700707466 -0.206583860092 -0.976222592731
3.64084013897 0.442870339207 13.3866897989 95 97 94 3 -0.152887925159 -0.0254520186796 -0.987915723676
5.33284945018 2.47258394907 13.1452060562 38 49 58 2 -0.148202690218 -0.123626524236 -0.981199493028
5.33284945018 2.47258394907 13.1452060562 38 49 58 2 -0.148202690218 -0.123626524236 -0.981199493028
4.81250223082 0.716306817489 13.5468780729 65 65 65 3 -0.204444565154 -0.037888173909 -0.978144624305
-2.65094313471 -5.19037084261 13.8791626202 134 140 139 3 0.135940727343 0.23291291405 -0.962949475891
-0.927821718926 -3.82058713279 12.7150938663 138 141 143 2 0.154157365843 0.183164569903 -0.970920309237
3.55248812164 2.08276584988 12.861015147 56 61 67 3 -0.151679481855 -0.106273069385 -0.982700040454
2.67976541299 -2.54040026176 12.6405142364 58 68 76 3 -0.111431901077 0.121853824105 -0.986273074241
-1.93182720753 4.55759229148 13.9099199581 44 39 30 3 0.104504188975 -0.213623772807 -0.971310330522
-3.0413919098 4.2486882704 13.8236486578 77 79 68 3 0.154582342606 -0.199476186143 -0.967632962706
4.78241227915 2.48363934138 13.0396641348 43 53 63 3 -0.206396703897 -0.123262409561 -0.970673363707
1.70419489948 2.62060423383 12.0270799765 82 83 74 2 0.0278236363615 -0.139661506049 -0.989808319316
1.70419489948 2.62060423383 12.0270799765 82 83 74 2 0.0278236363615 -0.139661506049 -0.989808319316
3.50475717321 -4.79900184232 13.146606817 161 160 160 2 -0.0598564946397 0.226452790651 -0.972181224698
-2.8950973089 3.73978590766 13.7192721123 131 130 126 3 0.149442254096 -0.177864132322 -0.972641436051
-0.536490604598 4.89948916853 13.8712146261 43 36 32 3 0.0416922915094 -0.230004494212 -0.972296089404
2.65289758476 1.23083414973 13.0152856064 139 140 142 3 -0.108756577844 -0.0646743070578 -0.991962318227
4.54274436135 2.66422725942 12.8392433226 122 125 128 3 -0.197122653099 -0.133320375534 -0.971271505349
-3.69496857774 4.24589723031 14.0115656079 89 89 84 3 0.181725669146 -0.196730875761 -0.963469119223
-2.42276403346 -5.29236523857 13.8310475996 52 51 43 3 0.126008827714 0.238133182849 -0.963023552445
5.35881116128 2.18022490138 13.2420704849 132 136 140 2 -0.148989267786 -0.10912285901 -0.98279926726
-2.8828001946 4.1312495694 13.8373461779 95 87 74 2 0.231837544038 -0.191712831223 -0.953675806298
-2.87533359829 4.12251805073 13.8097105 95 87 74 3 0.147506123861 -0.194236309154 -0.96980111344
-1.52636762987 -4.52359305772 13.3469990342 125 125 125 3 0.0886767548024 0.210037575084 -0.973663520016
-1.72021394902 3.7203855497 13.5754027931 149 149 148 3 0.0971807770191 -0.179350277717 -0.97897363318
1.91417213275 -0.386298268413 12.2445793245 151 152 154 2 0.0170368015314 0.015819509519 -0.999729708727
0.0310712115374 4.2032363364 13.7830366731 106 105 101 3 0.0162153835018 -0.200225863776 -0.979615569912
-0.55374736245 3.96496078068 13.5767401616 96 97 91 3 0.0434232469986 -0.191174483942 -0.980595093966
-0.55374736245 3.96496078068 13.5767401616 96 97 91 3 0.0434232469986 -0.191174483942 -0.980595093966
-2.90195007369 3.92285269292 13.7537991405 89 83 70 3 0.149298858556 -0.185783713475 -0.971181889576
-2.72848783773 3.55987193269 13.6430239796 102 103 99 3 0.14268421749 -0.170531666153 -0.974966750673
3.58149026568 1.70827700849 13.1003966166 53 56 61 2 -0.0650462029865 -0.087935955192 -0.994000130413
-3.08618558994 -4.97543869495 13.8206714605 145 142 138 3 0.155729565887 0.223536186678 -0.962174555657
2.07725376208 -2.85777688729 12.7461950512 136 147 155 3 -0.0818194694579 0.137013540199 -0.98718431117
5.52442545358 -2.15346274989 13.6060894894 126 126 123 2 -0.154263414921 0.0983931820091 -0.983118294282
-2.63838274572 4.79899865876 14.0139372475 71 58 40 3 0.134944523386 -0.222303996433 -0.965593552577
-0.642698083193 4.88577523747 13.844782376 86 80 69 3 0.0465463904304 -0.229628545516 -0.972164679785
-0.642698083193 4.88577523747 13.844782376 86 80 69 3 0.0465463904304 -0.229628545516 -0.972164679785
-3.49108291545 3.79804858065 13.7742215679 159 159 159 3 0.175336453705 -0.179247424264 -0.968053453533
-2.64714420436 3.84887616653 13.7619637522 100 101 93 3 0.137985938779 -0.182710094038 -0.97343561792
5.62777579245 -0.4448510505 13.6993325881 55 55 50 2 -0.159057904525 0.0173122743624 -0.987117454088
1.5068063087 -5.21486065539 13.3365518173 127 132 135 3 -0.0518502213149 0.241760341584 -0.968949684858
-1.16473937847 -5.0622518643 13.2959330721 127 130 130 3 0.0717556538706 0.235084422801 -0.969322670886
3.16626450065 2.2938300173 12.631829006 101 104 108 3 -0.134782513704 -0.118087938604 -0.983813454246
3.16626450065 2.2938300173 12.631829006 101 104 108 3 -0.134782513704 -0.118087938604 -0.983813454246
-1.40447354791 4.14850992432 13.6243443186 150 151 148 3 0.0822317854245 -0.198566938416 -0.976631509032
4.51750101958 2.36400166536 13.028568741 32 40 55 3 -0.194647686646 -0.117964945081 -0.97375384457
-4.4484431351 3.28775874109 13.8710675034 64 60 50 3 0.216767184117 -0.154338004597 -0.963945936361
-1.76218756403 -3.36489489862 13.1521428197 132 129 126 3 0.1014034681 0.158024559525 -0.982214627892
-4.34133255473 4.54280451231 14.3242790872 3 3 1 3 0.206132813434 -0.205689835126 -0.956661358555
3.76716652273 -1.83024365985 13.2048855266 155 157 159 2 -0.0737021277058 0.0855967576013 -0.993600116475
-0.666203228178 -3.16366739064 12.389034213 133 137 141 2 0.1447101883 0.154534958167 -0.977332035752
3.04289763773 0.619621242398 13.1793479692 108 109 109 3 -0.126427220633 -0.0343969046081 -0.991379347594
-2.96693114438 2.91999087558 13.2390905346 30 39 78 2 0.243896729788 -0.141438040334 -0.959431949617
4.14244337562 -3.8769133086 13.2437301024 153 155 156 3 -0.174275988983 0.179373648833 -0.968221552006
1.62868385375 4.83993193153 13.6541275322 61 59 51 2 0.0287633785575 -0.23043682706 -0.972662087669
-2.44990491484 3.77222646969 13.7569103155 106 106 105 3 0.129272229288 -0.179525710737 -0.975222646332
-2.2706088615 3.45454188272 13.5287877771 150 150 150 2 0.209344468488 -0.16504796032 -0.963812255736
3.43180029394 4.7832149756 13.7865408761 132 133 128 2 -0.0546832901174 -0.226299793976 -0.972521537565
-1.38361612145 -5.309366845 13.3124016283 133 133 133 3 0.0815446634396 0.245694945081 -0.965911208045
4.24527663159 -0.924219809067 13.2646737351 151 155 156 3 -0.181384992343 0.0401461746901 -0.982592371846
-3.36480319843 -4.85367770643 13.7489973175 139 135 128 3 0.168614782221 0.218478889687 -0.961163893401
5.59651887464 0.33124551808 13.641326286 96 98 95 2 -0.158038532939 -0.0195545723468 -0.987239302706
3.92613351682 2.92459545626 12.6838132592 145 145 146 2 -0.0828190913791 -0.149534262854 -0.985281940531
3.86412597556 -3.89186546312 13.1351509974 157 158 157 3 -0.162458235454 0.181355159991 -0.969905989093
-1.15351958395 -5.23925275315 13.2382023941 32 35 32 3 0.0712805381601 0.24361494536 -0.967249111282
5.43466857552 0.515090723892 13.6051025937 86 88 83 2 -0.150797752157 -0.0283758548864 -0.988157299626
5.43466857552 0.515090723892 13.6051025937 86 88 83 2 -0.150797752157 -0.0283758548864 -0.988157299626
3.8540390107 3.82119654138 13.2540004172 142 143 143 3 -0.160978812707 -0.185179324801 -0.969429955967
3.7182992101 3.62406867682 13.0732335969 130 130 130 2 -0.0708894685499 -0.180025015946 -0.981104314985
1.08036386552 -4.21380753985 12.7847393686 107 110 113 3 -0.0332792463864 0.201959085083 -0.97882839135
-1.33650043677 -1.90546812131 12.9469910161 15 25 35 3 0.0829544194214 0.0894642871481 -0.99252944824
4.25323646941 -3.96862224695 13.2168280149 151 154 157 3 -0.17933688339 0.183630598289 -0.966497845641
-2.58702792523 -5.2299857969 13.8596755443 67 70 63 3 0.133183595337 0.23491452022 -0.962848533323
3.27953187923 -4.84572043086 13.115214503 14 20 23 3 -0.134614342051 0.225851667854 -0.964816046219
-2.88557717485 3.62294413759 13.7054960485 154 154 151 3 0.149245455266 -0.17271876461 -0.973598491389
5.29958237924 1.62711714736 13.4230194827 134 139 141 2 -0.145348539297 -0.0819556234736 -0.985980262432
2.45943597388 2.06888944645 12.3947255947 17 21 27 3 -0.10214675126 -0.108777557424 -0.988804067653
4.16479597504 2.55709780164 12.8416355108 118 122 124 3 -0.179873868321 -0.128638764728 -0.975242256931
-0.632262515634 4.78802270639 13.7965307163 84 76 71 3 0.0462195343832 -0.2258421475 -0.973066842028
-2.48161212979 1.71643856692 12.3053266992 160 160 160 2 0.233720392192 -0.0895802076783 -0.968168458826
3.91004250588 0.187824618458 13.3892625005 78 80 76 2 -0.0801576761993 -0.0130156022284 -0.996697216333
5.2707432131 1.52903791538 13.4546432155 134 139 142 2 -0.143844536406 -0.0771753267433 -0.986586396768
-2.46822945222 -5.11666679891 13.7925853028 113 121 119 3 0.128464502374 0.230859990015 -0.964469043899
4.47240922239 -2.67451712653 13.4007622109 93 95 94 3 -0.189314949818 0.122283520244 -0.974272338955
4.47242496595 -2.67450951186 13.4007980979 93 95 94 3 -0.189315362067 0.12228294634 -0.974272330881
0.365165384479 -2.2737857508 12.4145483158 76 89 99 2 0.0944831100733 0.111140821103 -0.989303118258
2.88860002045 2.28622028217 12.5164056922 30 41 55 3 -0.122178122057 -0.118590181107 -0.985397825975
-0.842667866779 3.92512376239 13.4745055927 148 148 146 3 0.0570210589093 -0.190134316477 -0.980100780807
4.97834304966 -0.66429461483 13.5206306872 123 119 114 2 -0.130111945113 0.0280722563468 -0.991101826334
2.33777370549 0.694939863242 12.6162102679 111 111 111 2 -0.00454244931898 -0.0392473607301 -0.999219200591
2.33777370549 0.694939863242 12.6162102679 111 111 111 2 -0.00454244931898 -0.0392473607301 -0.999219200591
-2.92236621495 -4.70051427321 13.6596911627 147 143 140 3 0.149973818765 0.213303361784 -0.96540640641
4.56880086524 2.94929160592 12.7965216625 78 82 89 3 -0.198326004835 -0.147105343999 -0.969033958937
1.6134326664 -4.07108973008 12.9647651213 67 68 60 3 -0.0583453358689 0.193351072423 -0.979393273703
2.22648601304 -0.415001204593 12.4428665765 149 149 149 3 -0.0910599442736 0.016573363849 -0.995707492268
0.999989045279 4.87755693508 13.7817875707 28 33 33 3 -0.0279236641972 -0.230086565391 -0.972769469815
2.98499709108 -3.59017945946 12.9722201032 51 58 66 2 -0.121007019306 0.169283350363 -0.978110652518
3.07180103727 -4.16068493295 12.9925065415 154 156 158 2 -0.0398283360875 0.198755105793 -0.979239557803
2.01160177621 1.55943716611 12.3881129383 133 134 136 2 0.0119321424129 -0.0837681967262 -0.996413826276
2.01101470706 1.56125077843 12.4013747036 133 134 136 3 -0.0803596313677 -0.0835215489099 -0.993260530029
5.38123707606 -1.70319321684 13.6234115615 144 144 141 2 -0.147826153021 0.0771886608153 -0.985996622268
-3.40792591534 3.16289502691 13.5744198073 157 157 157 3 0.174008971975 -0.152155582928 -0.972918062457
-4.11236851358 3.39956642843 13.9076083291 119 119 117 3 0.201843886173 -0.159567794471 -0.96633180874
5.47223193052 -0.536395029782 13.6374141784 67 68 63 2 -0.152332884854 0.0217399400847 -0.988090110869
-0.39874286792 -3.01548667282 12.441038471 115 119 124 2 0.131477067401 0.147168635354 -0.980334215212
-0.39874286792 -3.01548667282 12.441038471 115 119 124 2 0.131477067401 0.147168635354 -0.980334215212
0.552011516759 -5.14951290022 13.1644543553 153 155 152 3 -0.00779705652116 0.241062212535 -0.970478343703
-4.04111050432 4.22284049273 14.1205204122 158 158 156 3 0.195725476808 -0.194231913577 -0.961231242458
-4.04111050432 4.22284049273 14.1205204122 158 158 156 3 0.195725476808 -0.194231913577 -0.961231242458
-2.82645792821 4.73314261672 13.9879979079 60 56 45 3 0.143425269672 -0.219446692213 -0.965024528857
0.660931018275 2.21058885742 11.724786763 135 138 139 2 0.0825025964508 -0.120300531018 -0.989303342669
5.42144806995 -2.06818121553 13.5417092888 113 114 108 2 -0.15002670536 0.0947381549586 -0.984132445189
