ply
format ascii 1.0
comment VCGLIB generated
element vertex 1080
property float x
property float y
property float z
property uchar red
property uchar green
property uchar blue
property uchar alpha
element face 0
property list uchar int vertex_indices
end_header
116.9362 88.41356 -1646.949 148 148 148 255 
41.79267 -670.0421 -1806.275 158 158 158 255 
41.83118 -670.0263 -1805.511 158 158 158 255 
-652.9224 -526.3897 -1820.566 16 23 33 255 
345.1679 425.0957 -1737.981 103 103 101 255 
-5.100672 509.5072 -1691.884 43 45 41 255 
-282.6431 -491.7733 -1753.282 150 150 151 255 
-200.7984 4.16801 -1546.483 51 51 50 255 
-82.11043 -223.7529 -1567.541 139 142 143 255 
252.2864 -411.4461 -1670.602 112 114 114 255 
-763.8091 40.72466 -1771.091 147 149 150 255 
419.1561 -24.79589 -1784.38 48 50 45 255 
419.1561 -24.79589 -1784.38 48 50 45 255 
-499.1255 -38.50533 -1701.895 69 79 82 255 
498.9287 -7.452257 -1797.26 137 136 132 255 
498.9287 -7.452257 -1797.26 137 136 132 255 
-218.588 -459.3929 -1755.087 76 77 72 255 
-247.602 495.4792 -1676.838 126 135 143 255 
430.6697 -238.9186 -1763.983 98 106 110 255 
398.7347 -43.613 -1781.642 50 50 50 255 
-69.75294 -227.5743 -1565.764 68 77 80 255 
185.3885 43.91268 -1701.76 141 139 137 255 
-37.88859 126.7619 -1542.247 4 3 10 255 
-600.5236 595.2675 -1789.947 13 18 20 255 
-418.386 -689.0434 -1849.159 31 23 21 255 
-418.386 -689.0434 -1849.159 31 23 21 255 
259.7682 -596.8141 -1801.517 110 111 106 255 
-448.2076 453.4424 -1755.668 151 154 154 255 
36.71897 502.0208 -1710.54 57 58 52 255 
256.0046 225.3548 -1732.08 157 157 158 255 
238.916 207.6266 -1717.278 51 59 63 255 
26.22041 -315.9449 -1583.581 150 151 152 255 
448.2889 440.4159 -1789.021 83 85 84 255 
448.2889 440.4159 -1789.021 83 85 84 255 
-744.8966 -43.064 -1759.176 124 128 132 255 
544.3726 0.9868144 -1806.945 33 35 29 255 
438.3553 -86.16164 -1786.626 47 51 50 255 
-396.8357 493.7619 -1737.093 8 8 6 255 
-568.7838 -632.2682 -1839.451 24 32 36 255 
-417.0285 394.4492 -1737.188 155 156 154 255 
-223.0499 198.5823 -1643.854 2 6 11 255 
-512.596 -142.8399 -1669.515 141 142 143 255 
-512.596 -142.8399 -1669.515 141 142 143 255 
-639.9713 227.827 -1752.533 3 6 12 255 
-702.5675 553.6107 -1806.057 14 23 28 255 
-270.3593 -681.8871 -1834.537 92 85 75 255 
119.2184 -210.6011 -1667.109 125 126 128 255 
-534.4263 -669.7325 -1842.311 24 21 21 255 
279.6473 172.2419 -1723.406 99 106 110 255 
-150.8048 -22.5181 -1526.24 148 149 150 255 
-414.9532 -525.0229 -1801.083 71 80 76 255 
-693.3508 227.6497 -1781.035 141 139 135 255 
-238.6499 -481.9447 -1762.494 60 61 52 255 
-238.6499 -481.9447 -1762.494 60 61 52 255 
-169.0264 -541.7161 -1804.335 159 159 157 255 
-548.1149 104.3494 -1671.652 141 143 145 255 
-39.09375 -586.6824 -1793.368 93 93 90 255 
-182.5989 665.9386 -1749.082 8 11 15 255 
-660.0076 -88.80206 -1702.64 43 55 69 255 
435.6196 600.886 -1795.311 39 41 41 255 
435.6196 600.886 -1795.311 39 41 41 255 
-282.5455 590.1193 -1736.352 161 161 160 255 
-55.72276 -260.942 -1561.411 140 141 143 255 
279.3029 648.0805 -1747.731 157 161 162 255 
-592.2093 -165.7141 -1649.808 123 128 130 255 
-328.2314 -296.8951 -1629.639 149 150 151 255 
354.2526 -180.677 -1778.235 93 99 99 255 
3.688297 151.6095 -1552.89 158 158 158 255 
456.115 -150.3271 -1789.057 74 78 79 255 
161.3771 -135.9237 -1703.139 149 151 150 255 
-234.4472 -493.8145 -1775.664 60 62 48 255 
436.5564 52.94062 -1782.933 115 113 107 255 
-567.4067 -386.8944 -1742.493 28 40 74 255 
-227.3759 -508.8867 -1783.822 80 82 71 255 
258.5844 273.4418 -1732.706 34 40 47 255 
-472.687 449.7251 -1761.601 69 71 60 255 
-780.5354 -143.2047 -1770.985 24 31 47 255 
-747.4916 297.7141 -1798.408 2 3 2 255 
-315.2738 415.0354 -1661.152 64 71 78 255 
-128.352 414.6685 -1672.01 159 158 156 255 
-558.0768 246.1396 -1731.717 43 57 68 255 
-46.16351 632.1773 -1724.597 153 156 157 255 
113.0643 652.4865 -1756.923 21 23 21 255 
-249.0329 340.7282 -1682.961 31 33 36 255 
444.8018 -251.1533 -1759.042 42 44 47 255 
201.2021 132.1481 -1683.358 115 114 114 255 
190.1976 101.2349 -1699.628 148 148 147 255 
299.304 -85.82829 -1771.015 139 139 139 255 
-649.1981 341.0768 -1749.781 159 160 159 255 
-300.1983 -50.03564 -1646.935 152 152 152 255 
450.4325 45.70574 -1786.407 154 154 152 255 
-177.4766 -68.89723 -1573.479 44 45 47 255 
-178.5672 348.6308 -1674.714 64 72 77 255 
-57.24444 624.404 -1714.817 50 50 50 255 
-57.24444 624.404 -1714.817 50 50 50 255 
426.0181 89.49448 -1767.782 148 148 147 255 
411.7992 -340.0981 -1712.682 118 120 123 255 
-233.945 263.2254 -1679.194 9 19 28 255 
454.5614 -310.1382 -1732.198 119 122 122 255 
454.5614 -310.1382 -1732.198 119 122 122 255 
-623.9296 -190.2971 -1663.809 147 148 150 255 
32.59855 -610.7766 -1799.563 63 61 51 255 
-591.843 -381.2464 -1753.632 152 154 153 255 
481.3443 235.7462 -1794.088 111 113 112 255 
504.934 -60.23566 -1797.448 26 30 30 255 
-607.2992 -132.5266 -1669.594 42 58 77 255 
-257.9634 398.9202 -1646.771 127 128 133 255 
-334.7523 -661.5208 -1813.799 49 47 43 255 
71.34861 -241.3523 -1622.434 72 76 79 255 
-252.4553 525.0915 -1694.486 150 149 150 255 
265.3036 264.6987 -1738.465 154 155 156 255 
-769.4764 164.1793 -1803.229 61 65 62 255 
-769.4764 164.1793 -1803.229 61 65 62 255 
-63.04182 160.7238 -1563.097 4 6 11 255 
-709.6888 290.0198 -1772.968 152 153 152 255 
-96.52577 633.1525 -1720.959 157 158 160 255 
-372.3009 209.887 -1693.585 31 43 54 255 
90.90504 269.8028 -1632.223 113 123 131 255 
-1.10276 -288.9245 -1579.498 29 40 68 255 
-20.97482 -617.4675 -1795.875 155 154 151 255 
-488.2252 569.996 -1791.698 128 134 133 255 
227.9342 124.4623 -1700.41 140 140 139 255 
-305.5089 -494.0409 -1756.817 151 151 149 255 
-633.1254 -86.05491 -1699.556 42 56 72 255 
-295.0638 531.6368 -1703.074 148 148 150 255 
240.3319 611.403 -1725.424 17 25 27 255 
64.26671 48.25231 -1622.726 64 66 69 255 
-378.5349 -704.4365 -1834.569 18 17 16 255 
290.0447 301.9936 -1737.543 148 151 150 255 
-246.3329 -602.6446 -1806.338 30 22 19 255 
-485.7125 -503.4161 -1810.19 97 99 96 255 
11.90842 -587.6846 -1784.147 155 155 154 255 
-29.34678 531.4948 -1686.203 160 160 160 255 
45.81114 -573.4141 -1783.418 67 68 61 255 
-566.6102 -645.3688 -1842.014 115 120 121 255 
-331.5706 657.1688 -1753.668 29 31 29 255 
480.3514 -77.30682 -1792.351 45 47 46 255 
-522.7864 270.0233 -1731.434 61 74 80 255 
150.788 -74.89269 -1683.071 150 150 150 255 
-251.7953 438.9988 -1644.188 154 159 161 255 
-423.8979 -679.6841 -1846.866 72 69 60 255 
-109.7287 -701.5917 -1821.143 139 139 138 255 
-159.7876 653.8705 -1737.219 3 4 8 255 
-544.2803 41.49209 -1684.753 97 102 104 255 
254.1742 -291.8485 -1683.276 92 97 98 255 
-558.2408 -87.43113 -1709.086 143 146 149 255 
440.9703 -523.5649 -1783.786 157 157 157 255 
319.6784 433.6909 -1728.193 94 97 96 255 
205.5362 65.9215 -1719.25 138 138 137 255 
219.1572 -652.6411 -1826.632 30 28 20 255 
90.8598 47.35626 -1637.686 145 146 146 255 
-426.9327 537.2196 -1772.372 1 3 4 255 
297.9643 -561.8904 -1783.349 146 146 146 255 
297.9643 -561.8904 -1783.349 146 146 146 255 
40.59712 -595.8277 -1793.168 69 71 58 255 
-670.9889 -85.50073 -1701.921 131 136 140 255 
-257.9544 448.9411 -1644.754 115 122 128 255 
-141.0181 414.6647 -1669.912 13 15 19 255 
169.7999 169.7444 -1660.66 69 74 80 255 
-112.1238 327.8447 -1659.228 116 127 136 255 
195.6015 588.6537 -1730.079 141 144 147 255 
195.6015 588.6537 -1730.079 141 144 147 255 
-186.1221 542.1223 -1708.264 119 129 136 255 
433.9057 70.16767 -1779.245 54 55 50 255 
145.1039 -263.7885 -1656.856 38 40 42 255 
-674.2051 -362.0477 -1796.704 158 158 158 255 
-232.4354 -584.3225 -1809.88 79 85 82 255 
-37.80682 454.0038 -1690.781 150 152 150 255 
352.5175 459.4839 -1750.841 150 150 151 255 
-523.5668 -448.4764 -1775.241 153 153 154 255 
-246.217 330.0831 -1684.61 139 140 143 255 
336.7615 345.7964 -1728.453 88 90 90 255 
336.8224 345.9194 -1728.793 88 90 90 255 
503.8034 166.4689 -1801.56 49 50 45 255 
371.5271 -124.8407 -1780.402 109 109 106 255 
118.2424 77.78909 -1651.308 59 63 64 255 
118.2424 77.78909 -1651.308 59 63 64 255 
-542.5245 25.39776 -1694.653 152 153 153 255 
446.6709 498.3212 -1773.136 155 158 159 255 
-529.0093 -215.816 -1623.684 156 157 157 255 
-676.013 -37.79568 -1721.22 139 139 143 255 
-318.6046 254.2204 -1710.468 11 21 31 255 
-381.1919 158.3066 -1655.673 16 26 36 255 
158.6995 62.79274 -1676.964 57 64 64 255 
-37.64362 177.0725 -1568.597 2 4 9 255 
-626.6713 83.01424 -1738.266 152 153 155 255 
-626.6713 83.01424 -1738.266 152 153 155 255 
226.4894 -603.5047 -1799.29 48 49 38 255 
471.4152 97.88595 -1790.729 53 54 49 255 
-232.367 -134.6053 -1634.753 151 151 151 255 
-338.0295 177.2826 -1665.243 20 31 41 255 
173.9914 160.5799 -1662.666 151 152 152 255 
302.6817 -40.23461 -1767.419 149 149 146 255 
-450.01 -530.3947 -1811.457 70 77 73 255 
-459.0111 -525.0396 -1812.353 160 160 159 255 
242.917 641.0186 -1733.921 146 152 156 255 
252.1517 26.9966 -1738.998 157 157 157 255 
-405.639 370.8307 -1736.351 66 65 64 255 
-53.01205 -667.4516 -1798.17 62 66 63 255 
-511.7478 -498.7014 -1805.549 145 145 143 255 
-504.7895 185.2786 -1675.349 22 34 46 255 
-261.8632 21.28254 -1592.615 140 143 144 255 
-125.1213 291.7169 -1648.789 17 19 22 255 
432.7735 163.6015 -1783.202 94 94 90 255 
-19.53646 508.3929 -1689.035 40 42 40 255 
26.28831 -190.3666 -1615.232 146 148 147 255 
-232.4246 368.502 -1654.796 47 50 54 255 
133.4182 647.6213 -1750.61 13 15 13 255 
162.0398 94.44318 -1678.008 152 152 151 255 
365.1448 -516.5553 -1739.836 148 148 147 255 
235.3727 -602.9975 -1801.76 145 144 143 255 
280.3297 575.9062 -1729.807 153 156 157 255 
141.6673 -343.4049 -1607.149 150 152 152 255 
-420.9182 463.7073 -1745.334 146 149 148 255 
-557.8477 231.5052 -1725.573 26 40 51 255 
-106.4785 569.369 -1709.951 152 157 159 255 
105.1622 254.5443 -1625.326 148 150 149 255 
-416.0674 -639.1264 -1831.142 40 32 24 255 
-747.7583 -510.7917 -1849.861 106 106 98 255 
-248.4906 -478.4234 -1755.343 146 146 143 255 
-464.4683 -130.9296 -1676.731 83 96 105 255 
319.1067 526.4434 -1728.419 153 156 157 255 
-336.3259 132.079 -1631.864 77 90 97 255 
530.8824 268.3164 -1794.601 39 39 38 255 
530.8824 268.3164 -1794.601 39 39 38 255 
438.0444 -365.9825 -1696.614 96 99 106 255 
299.9098 -14.76448 -1765.635 85 86 79 255 
-323.1503 -668.8984 -1816.378 88 89 79 255 
-562.4392 652.832 -1822.114 136 133 129 255 
-247.9133 -612.511 -1807.832 82 76 63 255 
-247.9133 -612.511 -1807.832 82 76 63 255 
58.74521 -682.1033 -1815.031 155 155 156 255 
120.0843 -344.0023 -1597.825 151 151 152 255 
473.9532 -204.7917 -1779.221 136 144 146 255 
517.1667 253.2367 -1792.905 144 145 144 255 
525.9807 242.4169 -1796.91 67 67 60 255 
284.3356 -550.7943 -1774.797 145 145 145 255 
157.9767 -280.5412 -1646.247 22 27 37 255 
-372.8604 73.1972 -1622.152 158 159 160 255 
218.2135 622.2257 -1725.891 147 151 153 255 
-22.33836 -328.135 -1597.358 133 133 133 255 
527.2981 47.90503 -1803.175 70 70 65 255 
331.6237 162.4929 -1726.091 78 84 86 255 
-690.5026 -332.4872 -1794.751 150 150 150 255 
-322.5719 143.512 -1632.311 46 58 67 255 
-545.9875 -509.3465 -1806.849 121 122 117 255 
-366.7062 -333.1806 -1645.022 155 155 155 255 
-366.7062 -333.1806 -1645.022 155 155 155 255 
-643.7535 436.5647 -1772.698 46 56 63 255 
-287.0092 -589.8869 -1798.115 136 136 132 255 
163.2437 -615.8853 -1804.522 111 111 106 255 
-575.1583 -571.2839 -1819.146 92 92 88 255 
191.3559 454.7716 -1716.685 157 159 162 255 
36.30364 623.5185 -1742.573 135 141 143 255 
-281.589 381.9792 -1670.542 57 60 60 255 
-281.589 381.9792 -1670.542 57 60 60 255 
-35.54955 -474.8875 -1743.65 135 135 135 255 
-35.54955 -474.8875 -1743.65 135 135 135 255 
-178.3405 511.2822 -1684.728 152 153 151 255 
-268.0535 1.88396 -1599.481 51 52 50 255 
321.429 -649.7856 -1810.252 105 109 110 255 
-155.6066 -695.5073 -1838.63 43 54 51 255 
-155.6066 -695.5073 -1838.63 43 54 51 255 
508.5367 27.09149 -1798.91 53 54 49 255 
396.1952 467.63 -1771.423 156 156 156 255 
492.414 297.8579 -1793.325 154 155 157 255 
-729.038 262.1306 -1785.705 131 130 126 255 
352.6053 496.7094 -1739.295 97 102 102 255 
546.2294 -44.54971 -1805.754 146 146 145 255 
270.4261 -317.0237 -1667.154 26 29 36 255 
287.9066 -369.0658 -1657.899 128 128 130 255 
179.4403 568.6532 -1736.43 126 130 130 255 
179.4403 568.6532 -1736.43 126 130 130 255 
372.8373 -267.568 -1743.332 90 98 103 255 
155.6468 -661.0991 -1826.427 120 120 112 255 
105.5147 -686.1835 -1827.667 131 129 123 255 
-368.9068 636.9915 -1760.051 25 27 25 255 
-368.9068 636.9915 -1760.051 25 27 25 255 
469.3666 324.2046 -1784.578 157 158 161 255 
-170.2334 -518.2664 -1791.643 156 156 154 255 
-129.4699 72.21761 -1533.435 0 2 5 255 
-124.5086 249.9149 -1626.69 33 40 49 255 
-657.0093 289.5329 -1758.123 158 158 159 255 
-350.4004 207.3714 -1687.908 30 41 51 255 
-430.9917 214.5944 -1703.608 26 39 48 255 
-657.2029 393.1586 -1754.484 61 72 80 255 
-380.593 -670.8208 -1832.073 81 86 79 255 
277.7547 276.8942 -1743.002 154 156 156 255 
56.9458 -295.4986 -1578.523 32 46 59 255 
-705.6556 -652.752 -1888.172 66 49 36 255 
-782.0851 245.9653 -1804.401 142 141 136 255 
-783.7715 50.16863 -1785.568 151 152 153 255 
32.60916 -364.2997 -1601.702 153 153 152 255 
187.809 113.6365 -1682.421 108 108 105 255 
52.97435 571.9136 -1732.848 151 156 158 255 
52.97435 571.9136 -1732.848 151 156 158 255 
-251.4397 -279.4551 -1628.097 121 131 133 255 
461.405 478.9422 -1788.354 98 102 103 255 
-19.25816 -678.4136 -1777.603 97 105 111 255 
475.9473 -6.242913 -1793.573 135 136 131 255 
475.9473 -6.242913 -1793.573 135 136 131 255 
402.1199 165.0629 -1767.867 85 83 81 255 
-508.8481 -656.0158 -1842.489 76 67 58 255 
-309.8261 666.8649 -1753.829 52 51 43 255 
-273.1783 137.5314 -1624.374 4 12 21 255 
-284.5494 36.09559 -1598.344 145 145 147 255 
-577.5695 -644.0162 -1843.638 18 18 23 255 
528.6041 150.5107 -1805.677 59 60 55 255 
363.6714 -406.8976 -1684.38 143 144 146 255 
137.6965 68.26749 -1660.892 61 65 66 255 
-670.4158 -420.4441 -1807.564 136 137 136 255 
8.91632 458.8855 -1705.167 146 153 154 255 
-719.396 241.36 -1787.506 142 141 137 255 
-398.2226 347.0148 -1729.556 147 150 151 255 
-219.7316 170.8045 -1630.184 11 23 32 255 
-751.4515 255.7402 -1796.544 25 26 17 255 
-606.3361 651.0697 -1814.307 151 149 144 255 
217.1265 547.9583 -1720.006 114 117 123 255 
217.1265 547.9583 -1720.006 114 117 123 255 
-19.25336 692.5608 -1764.339 26 30 27 255 
371.9 -601.0136 -1785.753 68 69 68 255 
254.6847 252.6352 -1734.021 157 157 157 255 
221.2082 88.68793 -1722.69 107 107 104 255 
-183.1892 480.5317 -1665.256 142 149 154 255 
211.9054 -22.76555 -1697.444 148 148 148 255 
-392.3313 -640.0488 -1826.109 26 22 21 255 
-540.5005 -118.3583 -1692.718 42 61 70 255 
452.8286 -180.6565 -1785.424 143 146 146 255 
-44.47261 686.6598 -1755.407 33 36 30 255 
-25.0292 -665.9668 -1784.425 155 154 151 255 
-598.3418 227.4239 -1737.471 152 154 158 255 
-217.5983 -517.096 -1789.795 153 153 151 255 
-611.6755 -409.0085 -1778.02 153 154 155 255 
-199.1957 -41.9524 -1577.179 136 136 136 255 
-570.3094 -543.187 -1806.902 86 84 75 255 
126.1025 180.9418 -1623.305 66 71 76 255 
-768.1147 -19.37501 -1765.763 141 144 146 255 
-402.8053 568.626 -1765.274 92 97 97 255 
-346.3286 -582.149 -1801.872 73 78 72 255 
-204.7648 -77.18358 -1598.395 105 108 107 255 
-754.6814 204.6858 -1801.373 117 117 113 255 
-123.5703 264.9193 -1634.404 69 84 94 255 
-123.5703 264.9193 -1634.404 69 84 94 255 
-304.7682 136.0963 -1627.131 14 27 36 255 
512.7291 -203.7384 -1787.026 140 146 148 255 
-450.5216 561.1025 -1776.845 35 34 29 255 
-366.9201 -636.0543 -1819.891 70 72 68 255 
-366.6891 -635.5754 -1818.416 70 72 68 255 
194.5079 -302.7447 -1658.197 39 54 73 255 
-535.4763 -556.6833 -1819.471 91 79 66 255 
492.1277 468.0147 -1796.712 146 150 150 255 
475.9571 -370.4919 -1712.584 81 86 91 255 
475.9571 -370.4919 -1712.584 81 86 91 255 
124.3884 97.74308 -1649.576 97 98 97 255 
124.3884 97.74308 -1649.576 97 98 97 255 
-163.3606 102.0184 -1571.96 0 1 6 255 
351.3307 -350.8068 -1691.097 131 134 132 255 
-24.27822 205.4168 -1586.852 12 17 26 255 
-58.57883 -675.7964 -1800.996 139 141 143 255 
-674.6251 -72.70882 -1704.517 38 48 69 255 
-409.545 460.4497 -1740.514 12 21 25 255 
-767.5049 348.0956 -1809.084 111 110 106 255 
-439.53 548.6063 -1774.087 34 33 29 255 
-270.2615 242.6212 -1694.213 8 19 28 255 
-766.5816 154.9286 -1802.145 133 134 133 255 
111.5074 -676.5758 -1826.036 85 87 78 255 
-290.0394 123.2421 -1622.07 5 14 23 255 
-517.5391 310.8469 -1744.415 155 158 160 255 
12.10291 262.824 -1628.294 82 93 103 255 
-120.7772 207.1304 -1607.046 5 15 24 255 
164.0453 -19.30347 -1671.887 99 102 105 255 
106.3427 80.547 -1640.779 50 54 56 255 
58.59412 -600.3718 -1799.452 88 89 80 255 
-612.9444 -156.5303 -1650.902 128 133 136 255 
229.849 624.4496 -1725.832 22 27 28 255 
120.0245 128.2141 -1634.031 118 121 120 255 
120.0245 128.2141 -1634.031 118 121 120 255 
-551.7165 -475.3231 -1799.943 111 112 107 255 
45.36723 218.3423 -1592.827 124 131 138 255 
45.36723 218.3423 -1592.827 124 131 138 255 
-690.937 -493.0416 -1829.871 142 142 140 255 
416.2863 355.8496 -1763.26 92 95 94 255 
507.5663 328.8116 -1799.5 155 155 155 255 
506.623 251.435 -1792.066 103 103 100 255 
-725.1167 319.2628 -1786.433 141 143 143 255 
-665.8032 577.3044 -1797.104 155 157 156 255 
-497.9182 -509.7255 -1812.136 150 150 149 255 
-228.1209 395.3179 -1642.905 67 74 76 255 
-465.1739 457.4377 -1761.676 146 149 147 255 
-465.1739 457.4377 -1761.676 146 149 147 255 
-548.2872 -669.3099 -1843.994 29 29 29 255 
-548.2872 -669.3099 -1843.994 29 29 29 255 
-657.616 -420.08 -1801.211 73 78 79 255 
-749.4605 40.51204 -1762.162 29 37 68 255 
-457.5837 128.3569 -1647.821 80 91 101 255 
177.7827 -268.6092 -1655.369 100 104 108 255 
266.0214 297.5027 -1730.76 151 154 156 255 
8.471149 619.9711 -1733.32 37 37 36 255 
-442.7492 -507.4207 -1801.113 153 153 153 255 
-772.9379 -136.3525 -1771.625 106 111 116 255 
-617.4847 -539.2596 -1806.546 86 87 83 255 
376.8835 -390.8054 -1680.863 127 132 135 255 
359.1887 -655.0463 -1790.995 135 137 136 255 
-731.7082 -294.2458 -1793.61 159 159 159 255 
-652.6511 -431.7678 -1804.213 137 137 137 255 
333.0237 -358.6337 -1677.181 47 54 59 255 
315.9103 -567.6692 -1788.589 135 135 133 255 
-723.4219 558.418 -1813.561 6 12 15 255 
451.2155 -57.28108 -1788.889 29 33 32 255 
451.2155 -57.28108 -1788.889 29 33 32 255 
-695.8263 -506.042 -1832.623 142 142 140 255 
214.475 613.1486 -1724.508 14 19 22 255 
-568.4954 30.51189 -1703.104 150 151 153 255 
-168.2196 553.2215 -1710.655 152 158 158 255 
121.2536 -191.867 -1677.63 133 134 137 255 
440.136 -341.1516 -1716.677 96 100 107 255 
177.3567 559.5696 -1735.293 23 24 25 255 
-215.8882 -269.5978 -1624.826 111 119 123 255 
-319.7789 -281.8961 -1633.612 138 141 143 255 
-574.3815 576.4091 -1797.803 125 124 119 255 
-771.7888 -334.9178 -1804.633 58 49 43 255 
-730.2675 -317.1655 -1800.699 89 90 85 255 
315.6924 -508.4563 -1748.948 81 84 84 255 
315.6924 -508.4563 -1748.948 81 84 84 255 
139.5638 -170.0597 -1694.694 139 140 141 255 
464.7505 -184.8226 -1783.426 59 71 83 255 
464.7505 -184.8226 -1783.426 59 71 83 255 
-114.5968 -659.9156 -1824.953 101 100 97 255 
-535.6534 -152.5474 -1669.007 110 116 125 255 
-765.5265 125.4826 -1799.506 131 131 128 255 
-52.95878 463.3237 -1682.354 6 6 5 255 
-722.012 -478.2153 -1835.115 146 146 144 255 
-262.4269 424.4135 -1641.241 149 154 157 255 
-234.1199 344.8431 -1674.868 133 138 141 255 
171.0912 574.6495 -1736.308 25 25 24 255 
232.3958 146.4433 -1684.687 149 150 152 255 
-746.6522 -582.4898 -1871.79 84 75 62 255 
-505.5347 684.381 -1821.415 118 123 121 255 
-648.426 -539.1976 -1821.224 145 145 145 255 
391.7069 -103.0908 -1781.547 83 83 83 255 
245.9524 -261.0612 -1682.083 70 78 80 255 
247.0084 -1.36501 -1731.676 50 51 48 255 
-275.2282 -259.5934 -1646.572 116 123 129 255 
-275.2282 -259.5934 -1646.572 116 123 129 255 
-185.3193 -6.681915 -1543.46 47 48 49 255 
-185.3193 -6.681915 -1543.46 47 48 49 255 
-112.1332 577.6981 -1715.649 125 132 136 255 
-272.0278 231.8548 -1694.553 4 13 21 255 
402.7696 103.7416 -1752.815 41 45 46 255 
-625.4474 -405.2448 -1782.587 53 63 81 255 
357.5063 -325.7116 -1696.752 116 120 120 255 
-417.8458 323.2251 -1734.745 123 127 128 255 
31.65755 -666.1285 -1798.615 83 84 72 255 
109.3992 70.78088 -1645.823 148 152 151 255 
-180.3719 -514.6116 -1791.438 97 98 92 255 
20.82789 -668.0023 -1791.808 153 153 152 255 
178.5748 295.9478 -1680.922 157 158 157 255 
339.3467 620.943 -1764.388 160 161 159 255 
222.0354 194.2637 -1703.237 64 71 76 255 
222.0354 194.2637 -1703.237 64 71 76 255 
-743.998 -418.0454 -1821.761 74 65 53 255 
167.3169 566.8124 -1736.737 125 129 127 255 
167.3169 566.8124 -1736.737 125 129 127 255 
-746.7579 345.0234 -1802.321 98 97 95 255 
-746.7579 345.0234 -1802.321 98 97 95 255 
0.1239019 -639.2558 -1785.467 147 148 144 255 
-160.1022 643.7997 -1734.719 4 5 7 255 
-460.3227 -443.7885 -1761.028 95 95 95 255 
188.2066 -337.9459 -1640.874 56 61 69 255 
-273.2269 -9.552131 -1609.737 141 141 141 255 
51.50771 -348.9027 -1581.781 156 156 155 255 
133.9019 -236.5868 -1663.752 109 112 115 255 
-617.9628 -625.5944 -1850.255 88 79 62 255 
-128.0469 635.5978 -1728.506 8 9 14 255 
-137.5674 -23.22742 -1523.567 88 92 95 255 
-731.6116 -533.1016 -1853.576 150 150 147 255 
215.7957 243.789 -1714.534 79 83 86 255 
-84.58271 -701.7297 -1806.336 40 60 81 255 
282.6266 -398.6517 -1673.171 108 109 111 255 
367.5004 522.0609 -1740.449 153 157 159 255 
130.5714 -127.0123 -1682.207 149 149 149 255 
-126.3819 -109.5121 -1565.523 152 152 152 255 
-657.3559 -126.1365 -1692.557 36 45 71 255 
-657.3559 -126.1365 -1692.557 36 45 71 255 
-672.8383 -472.1254 -1821.912 74 75 64 255 
-356.6321 -605.5925 -1812.406 79 79 67 255 
-356.6321 -605.5925 -1812.406 79 79 67 255 
-337.4073 478.6355 -1687.542 15 15 19 255 
-47.40377 221.9691 -1597.797 7 16 24 255 
512.6997 312.2304 -1800.072 108 107 103 255 
15.08412 -698.3824 -1791.554 159 160 157 255 
15.13549 -698.9252 -1791.231 159 160 157 255 
467.0856 -41.40918 -1791.262 119 122 121 255 
483.8141 -123.0412 -1794.263 137 138 137 255 
25.1587 497.5562 -1705.31 92 92 84 255 
350.9598 -95.32237 -1778.001 108 109 110 255 
-640.6605 -556.463 -1825.236 124 125 120 255 
-157.9565 -88.41077 -1565.943 54 56 54 255 
456.2413 499.1654 -1781.977 71 75 75 255 
-618.451 -663.2354 -1862.766 41 33 25 255 
500.6788 206.6907 -1798.219 62 63 57 255 
-468.866 -537.3391 -1817.887 159 159 158 255 
-468.866 -537.3391 -1817.887 159 159 158 255 
-92.84412 -314.0156 -1563.888 55 56 53 255 
200.9757 -320.2015 -1656.2 56 65 77 255 
524.1135 -71.25268 -1799.962 154 154 155 255 
-580.305 -634.9762 -1841.993 74 82 82 255 
-704.5474 -575.0995 -1858.907 152 152 150 255 
-722.2628 -610.7534 -1873.812 101 91 76 255 
-256.2986 -533.5146 -1786.419 153 154 150 255 
397.722 -237.5594 -1762.764 97 104 107 255 
508.4427 190.3823 -1800.906 57 58 51 255 
13.31245 204.8128 -1585.606 7 13 20 255 
440.1693 -300.75 -1732.171 105 110 112 255 
282.6535 565.3203 -1724.909 61 70 76 255 
381.8366 -31.22233 -1779.781 59 59 57 255 
237.0656 215.0943 -1717.507 151 153 154 255 
206.2869 1.765927 -1703.05 148 148 147 255 
206.2869 1.765927 -1703.05 148 148 147 255 
190.5015 -109.534 -1724.925 97 98 92 255 
-756.5065 -473.6747 -1841.326 96 85 71 255 
-340.2535 -30.55832 -1658.672 127 127 127 255 
-340.3712 -30.71996 -1658.645 127 127 127 255 
-472.7293 -122.5483 -1680.405 146 149 150 255 
229.3287 -643.2014 -1822.588 62 59 52 255 
-729.2408 391.0937 -1787.837 156 156 156 255 
-202.4838 555.7916 -1718.853 128 136 141 255 
-202.4838 555.7916 -1718.853 128 136 141 255 
234.2858 -623.7761 -1812.818 58 59 54 255 
284.9877 157.7139 -1712.027 90 98 100 255 
-199.9222 472.3222 -1665.357 119 128 137 255 
415.8303 -62.75549 -1783.483 107 108 104 255 
-388.8455 427.0889 -1717.803 23 27 30 255 
327.5803 -123.1106 -1774.904 61 69 67 255 
202.6097 162.0753 -1677.268 72 76 79 255 
423.5883 -88.16116 -1785.866 63 63 63 255 
279.3754 480.8033 -1721.957 161 162 163 255 
-620.4593 367.7075 -1745.746 155 155 155 255 
-534.8757 214.5259 -1704.59 31 44 55 255 
301.7587 326.5859 -1725.396 140 144 147 255 
64.3026 537.0748 -1728.217 149 153 154 255 
544.5095 -72.05148 -1803.801 149 149 150 255 
455.5466 443.5424 -1788.88 156 158 158 255 
-736.1535 -617.8681 -1878.283 20 19 18 255 
-564.8276 -347.4776 -1726.919 129 129 129 255 
-569.6794 135.3268 -1690.489 130 134 135 255 
-475.647 261.2 -1717.086 13 24 31 255 
-413.3698 416.285 -1733.506 99 98 94 255 
77.37118 255.799 -1619.878 98 108 117 255 
393.5735 -405.6947 -1685.718 95 102 107 255 
332.2892 210.9329 -1750.621 39 48 51 255 
-35.81427 -596.2753 -1795.215 148 148 148 255 
-1.501144 483.6243 -1700.957 32 28 23 255 
31.17317 -342.4583 -1587.964 153 153 153 255 
-29.47862 -298.7478 -1563.155 57 57 55 255 
-107.6729 475.7599 -1656.353 32 38 43 255 
-662.2908 -627.0406 -1866.475 147 147 140 255 
230.4165 669.7355 -1753.213 31 35 38 255 
-538.2478 -81.79305 -1710.872 150 152 150 255 
513.215 180.2205 -1803.197 56 57 51 255 
281.1444 307.3514 -1730.514 67 74 76 255 
23.87479 278.3688 -1639.755 97 108 117 255 
23.84344 278.5839 -1640.459 97 108 117 255 
395.6931 -74.55445 -1781.708 82 82 82 255 
408.9511 -37.95089 -1783.28 93 94 89 255 
240.1405 550.9393 -1714.337 152 158 158 255 
483.2293 -134.0543 -1792.642 88 91 93 255 
483.2293 -134.0543 -1792.642 88 91 93 255 
-401.7057 586.4174 -1762.058 63 57 48 255 
109.1215 299.0089 -1647.298 107 118 126 255 
109.1215 299.0089 -1647.298 107 118 126 255 
-411.9273 568.2235 -1767.505 52 52 46 255 
324.0565 -192.9013 -1774.367 65 66 63 255 
77.85236 -678.9982 -1819.935 153 153 153 255 
-34.36355 -637.4584 -1797.33 142 142 138 255 
439.3563 170.7187 -1785.815 102 103 98 255 
331.1705 -628.4648 -1804.343 123 126 127 255 
-716.4105 -189.5704 -1726.165 44 60 83 255 
-171.5842 -21.29717 -1545.55 54 55 57 255 
-171.5842 -21.29717 -1545.55 54 55 57 255 
431.5976 -94.13356 -1786.418 109 109 109 255 
-408.9835 485.5841 -1743.345 151 153 154 255 
-583.6075 -146.2823 -1670.514 115 121 127 255 
-70.96566 274.5171 -1631.379 82 94 103 255 
-488.2332 -655.5526 -1846.067 107 108 99 255 
78.65673 -685.9249 -1821.631 53 53 48 255 
-651.5875 -77.66539 -1702.143 129 134 138 255 
-584.0276 -495.0554 -1799.34 148 148 146 255 
-99.8891 238.7866 -1613.315 4 8 16 255 
-99.8891 238.7866 -1613.315 4 8 16 255 
-754.4815 -199.5292 -1749.78 146 149 151 255 
412.5876 -155.9415 -1785.884 95 97 95 255 
485.2624 219.0426 -1797.04 122 123 120 255 
357.8617 -102.6286 -1779.068 50 53 52 255 
357.8617 -102.6286 -1779.068 50 53 52 255 
-565.9548 -495.0625 -1802.703 46 40 34 255 
-601.9785 -611.0256 -1837.579 23 21 18 255 
-297.1743 -657.8702 -1816.116 30 29 25 255 
-297.1743 -657.8702 -1816.116 30 29 25 255 
210.4325 -645.9373 -1823.151 89 86 78 255 
153.8753 -164.2299 -1707.191 144 144 144 255 
-274.615 184.4409 -1655.304 5 10 18 255 
79.74617 -657.7246 -1817.42 104 104 99 255 
149.8642 -254.3915 -1670.99 33 37 40 255 
-276.1283 -589.0106 -1798.972 52 52 47 255 
-276.1283 -589.0106 -1798.972 52 52 47 255 
105.2374 310.6592 -1651.965 50 57 67 255 
-377.4857 647.4761 -1768.476 114 115 112 255 
-377.4857 647.4761 -1768.476 114 115 112 255 
-368.973 658.2244 -1768.558 18 21 16 255 
-141.4656 -690.919 -1836.13 107 107 104 255 
177.219 -701.08 -1843.42 27 27 25 255 
-776.4464 105.3781 -1800.819 103 103 100 255 
119.2328 -298.9014 -1622.092 106 112 116 255 
119.2328 -298.9014 -1622.092 106 112 116 255 
319.3981 504.9882 -1730.83 115 120 120 255 
319.3981 504.9882 -1730.83 115 120 120 255 
-81.47133 -294.3387 -1548.216 39 49 57 255 
183.3916 626.699 -1733.768 11 15 18 255 
169.8724 120.7946 -1665.376 104 106 105 255 
-490.4785 -256.5575 -1617.82 160 160 160 255 
-375.0186 474.1401 -1711.094 83 90 96 255 
140.4803 -613.3549 -1807.164 107 108 101 255 
328.0752 351.1672 -1722.047 148 149 150 255 
269.6628 645.2958 -1742.335 61 64 68 255 
-140.0848 641.2844 -1730.608 4 6 11 255 
-473.0275 -596.7015 -1832.596 116 116 111 255 
386.9159 -361.8252 -1691.221 105 111 116 255 
-551.4261 300.5595 -1747.806 159 160 162 255 
-165.3843 245.9131 -1638.574 9 20 29 255 
459.0891 -69.73524 -1789.647 28 34 35 255 
-130.9466 -571.2789 -1811.693 80 79 73 255 
181.7022 -122.8227 -1725.253 149 149 150 255 
-38.07187 525.9769 -1682.34 106 110 112 255 
240.8291 186.2891 -1711.926 57 66 68 255 
-80.89447 640.6866 -1722.629 156 157 159 255 
-44.79362 -281.8136 -1559.758 30 35 44 255 
-44.79362 -281.8136 -1559.758 30 35 44 255 
-231.4914 414.6824 -1635.026 148 152 155 255 
-757.6803 -364.8865 -1811.577 84 79 66 255 
-340.9315 -644.1796 -1810.826 144 142 137 255 
41.22964 570.8851 -1725.87 56 58 54 255 
-442.432 164.1098 -1670.329 22 33 45 255 
365.1843 48.02757 -1774.691 130 130 130 255 
365.1472 47.95879 -1774.585 130 130 130 255 
-705.0742 -460.5552 -1826.672 150 154 151 255 
4.474111 210.1041 -1589.896 93 101 109 255 
4.54202 210.0022 -1590.07 93 101 109 255 
491.2773 97.91812 -1795.165 140 140 138 255 
199.0118 -64.37726 -1715.568 150 150 150 255 
517.1622 268.3423 -1788.858 157 157 158 255 
321.6292 -558.6837 -1782.69 120 120 120 255 
93.85728 -273.0349 -1614.883 122 126 129 255 
394.8896 -357.779 -1693.898 50 60 67 255 
527.5443 167.0031 -1806.513 129 129 126 255 
404.2536 193.0466 -1773.241 128 127 125 255 
-509.0127 -560.0765 -1823.636 145 145 139 255 
-120.3892 219.5939 -1612.563 98 111 119 255 
123.7863 647.9251 -1755.548 54 53 45 255 
-473.1483 149.452 -1657.347 112 119 126 255 
312.8253 291.4263 -1749.199 155 155 157 255 
-413.3127 -491.941 -1788.013 84 87 87 255 
-413.3127 -491.941 -1788.013 84 87 87 255 
-46.03216 133.9819 -1545.171 122 123 125 255 
-46.03216 133.9819 -1545.171 122 123 125 255 
-671.0384 270.0486 -1761.392 150 148 144 255 
-508.2788 -644.3165 -1840.955 92 85 75 255 
427.4834 485.9112 -1772.427 70 73 74 255 
286.7762 285.4211 -1744.578 41 47 50 255 
14.98723 615.1045 -1734.339 155 158 158 255 
-537.3259 120.2761 -1673.067 124 132 135 255 
-23.7809 186.3387 -1576.196 1 2 7 255 
-712.4694 -10.79345 -1744.296 143 147 149 255 
353.3568 478.946 -1752.889 154 154 153 255 
422.5185 -70.56141 -1785.085 57 57 54 255 
23.57284 190.7284 -1577.751 91 100 107 255 
23.55949 190.9064 -1578.077 91 100 107 255 
51.99842 625.2187 -1747.308 141 147 146 255 
525.1603 23.39214 -1802.544 47 48 43 255 
-247.7422 -464.9658 -1749.165 72 76 71 255 
-247.7422 -464.9658 -1749.165 72 76 71 255 
186.9568 -196.4553 -1727.974 125 130 128 255 
184.0853 -662.0497 -1830.538 58 51 38 255 
-302.2401 689.9556 -1749.453 66 67 62 255 
327.6691 468.0202 -1739.907 74 75 75 255 
466.5523 587.5794 -1805.492 58 59 52 255 
306.1843 528.5746 -1725.625 154 156 158 255 
-401.6266 545.6633 -1762.86 109 112 113 255 
-157.7535 -468.1203 -1758.945 148 148 148 255 
-645.9204 426.2459 -1766.819 83 94 100 255 
-61.67811 -224.0602 -1567.214 142 145 144 255 
406.689 344.9448 -1765.173 149 151 151 255 
-73.6646 -329.7087 -1584.796 140 141 142 255 
-750.6077 151.1415 -1799.047 133 136 132 255 
-484.2568 -669.1017 -1852.225 101 102 94 255 
-483.9412 -668.5078 -1850.324 101 102 94 255 
-576.8107 127.6611 -1694.595 26 40 47 255 
-516.2928 -100.8766 -1698.074 49 66 79 255 
39.675 -698.814 -1808.148 158 158 159 255 
-636.5218 587.2741 -1791.251 26 31 38 255 
-422.5428 577.9448 -1770.958 34 30 25 255 
-734.3408 236.0586 -1795 122 118 114 255 
-719.7779 76.65607 -1762.419 38 53 80 255 
-560.7737 -532.0447 -1809.435 95 87 74 255 
-374.6044 -677.8578 -1829.425 19 20 21 255 
195.3962 -254.6448 -1673.969 65 70 73 255 
-162.1929 90.31437 -1560.016 9 16 21 255 
381.4263 -591.0413 -1786.502 66 68 66 255 
270.3077 -220.6396 -1768.435 41 46 52 255 
-549.0991 -662.7402 -1847.104 76 79 80 255 
-47.8944 180.2993 -1571.565 10 18 26 255 
-506.6714 205.1642 -1687.704 16 29 41 255 
423.8843 -347.0612 -1706.408 108 114 117 255 
423.9234 -346.9666 -1707.003 108 114 117 255 
226.1153 -582.2374 -1786.692 74 74 68 255 
226.1153 -582.2374 -1786.692 74 74 68 255 
-384.5489 344.6132 -1725.035 138 139 140 255 
-237.3674 122.059 -1603.888 9 18 29 255 
-603.7316 416.524 -1757.655 154 155 156 255 
58.05075 520.7177 -1721.2 148 151 153 255 
-773.8754 -269.5644 -1790.835 155 155 156 255 
-389.5445 -614.8063 -1819.884 22 22 18 255 
-138.2021 622.5801 -1726.112 7 10 14 255 
-680.568 164.1087 -1771.185 58 62 66 255 
219.3331 663.4143 -1749.593 13 18 21 255 
219.43 663.5989 -1749.871 13 18 21 255 
424.9639 -359.7245 -1697.028 36 44 52 255 
424.9639 -359.7245 -1697.028 36 44 52 255 
-537.3464 129.1819 -1675.247 21 35 49 255 
-302.9832 -599.0992 -1801.628 133 132 126 255 
-302.9832 -599.0992 -1801.628 133 132 126 255 
-683.6378 532.3848 -1778.696 152 155 155 255 
187.4726 -143.8493 -1733.105 84 86 81 255 
337.9316 -263.683 -1745.842 30 34 38 255 
230.1454 593.6776 -1724.222 158 161 161 255 
74.2261 -91.1369 -1638.455 100 100 100 255 
-224.8577 -521.4744 -1790.02 69 71 56 255 
-701.8547 578.8765 -1807.979 95 94 90 255 
-227.783 500.8774 -1680.15 66 75 85 255 
-584.8721 -587.4505 -1825.388 47 46 41 255 
356.5121 348.5961 -1739.348 155 156 157 255 
356.5121 348.5961 -1739.348 155 156 157 255 
-350.5069 -549.1373 -1788.604 74 75 70 255 
-279.5056 -605.8564 -1797.412 56 55 47 255 
5.506247 -670.6891 -1782.526 156 156 154 255 
5.506247 -670.6891 -1782.526 156 156 154 255 
-422.2129 -658.3348 -1838.472 67 60 53 255 
-122.8963 -315.3451 -1577.957 43 45 45 255 
203.2929 -72.07882 -1721.04 85 86 78 255 
183.5698 637.7192 -1738.558 144 147 148 255 
183.5698 637.7192 -1738.558 144 147 148 255 
173.7624 65.87975 -1689.344 151 151 151 255 
236.2112 4.234368 -1724.056 147 147 145 255 
358.5063 301.1053 -1761.225 53 61 60 255 
-713.4985 372.8689 -1782.646 135 135 132 255 
169.932 -110.4419 -1713.666 150 150 150 255 
-102.1436 -634.6614 -1822.012 69 73 68 255 
-154.3625 109.1369 -1569.317 7 16 23 255 
-154.0603 108.5574 -1569.595 7 16 23 255 
-689.8661 341.6968 -1767.812 16 22 28 255 
-362.9134 360.1781 -1718.235 31 32 33 255 
315.3525 -580.1765 -1800.884 86 89 85 255 
85.70762 -278.2768 -1612.957 47 54 65 255 
112.1852 138.3488 -1624.859 110 112 111 255 
112.1852 138.3488 -1624.859 110 112 111 255 
330.8598 -332.2621 -1683.854 118 120 122 255 
-609.224 -564.464 -1815.235 91 92 86 255 
531.5413 66.73992 -1805.559 43 44 38 255 
-17.36974 441.7578 -1697.873 150 155 155 255 
360.3043 -18.408 -1777.625 144 144 144 255 
-624.8808 -533.9244 -1809.012 154 153 149 255 
-515.9814 258.8774 -1724.183 46 60 67 255 
-352.2659 83.87592 -1617.687 81 90 98 255 
394.8167 -552.7379 -1774.327 150 150 150 255 
81.85021 -516.8193 -1727.2 96 97 90 255 
81.85021 -516.8193 -1727.2 96 97 90 255 
-111.8735 641.3382 -1728.965 30 34 35 255 
35.61772 -587.1583 -1787.858 150 150 149 255 
35.61772 -587.1583 -1787.858 150 150 149 255 
-484.6226 -21.33864 -1687.481 156 156 156 255 
-130.8024 40.44191 -1517.32 2 3 8 255 
-773.0507 275.0824 -1802.02 132 131 127 255 
-489.2244 681.7595 -1815.871 95 88 78 255 
311.438 -499.3109 -1742.636 146 145 145 255 
119.4167 -242.7656 -1647.934 112 116 119 255 
370.3022 -111.7911 -1780.167 98 98 98 255 
161.0825 165.3885 -1654.164 154 153 152 255 
-261.0263 88.76608 -1594.828 2 3 10 255 
226.1458 77.84644 -1725.142 150 149 147 255 
-598.8718 -660.6364 -1853.101 82 69 55 255 
-567.3381 -86.86135 -1706.911 143 145 147 255 
-773.4257 -44.85939 -1774.618 70 73 72 255 
-10.36892 473.6926 -1698.037 18 15 11 255 
-10.36892 473.6926 -1698.037 18 15 11 255 
407.5835 -359.174 -1696.758 51 59 67 255 
145.8134 -30.18614 -1652.656 154 155 156 255 
-157.7929 -98.56901 -1567.865 145 145 145 255 
-684.3134 -405.2582 -1810.502 143 144 144 255 
-674.6821 612.9635 -1809.938 18 27 33 255 
368.154 438.0984 -1757.199 155 155 155 255 
365.9221 -26.25879 -1778.391 95 95 94 255 
-243.1302 -429.4073 -1719.222 148 148 148 255 
-243.1302 -429.4073 -1719.222 148 148 148 255 
401.298 -402.6881 -1686.136 137 138 142 255 
-373.6512 171.8337 -1665.508 17 27 37 255 
-38.3679 -627.7592 -1804.632 148 148 147 255 
441.8633 -177.4151 -1785.683 26 27 30 255 
197.3659 6.611027 -1697.858 94 103 102 255 
197.3659 6.611027 -1697.858 94 103 102 255 
-716.0536 317.41 -1782.386 7 14 15 255 
-644.8911 -130.7385 -1684.072 43 56 65 255 
-339.7577 337.7751 -1715.389 147 147 149 255 
305.9771 -349.5881 -1666.381 134 136 137 255 
-566.7841 -454.306 -1787.738 156 156 155 255 
-666.3867 -36.94759 -1724.229 39 48 61 255 
-68.3872 -241.5825 -1561.835 49 54 58 255 
296.1767 -46.9469 -1766.018 68 69 66 255 
52.67229 -185.5482 -1630.483 99 99 99 255 
-420.4566 -58.06133 -1687.087 140 140 140 255 
-133.2118 272.7709 -1638.512 72 84 97 255 
-133.2118 272.7709 -1638.512 72 84 97 255 
447.7008 -32.6345 -1788.042 79 80 75 255 
530.4368 279.2179 -1796.586 127 126 123 255 
-184.8599 -522.7486 -1792.259 155 155 152 255 
-684.9488 -484.169 -1826.865 138 138 137 255 
192.2643 555.7794 -1730.401 65 70 66 255 
-352.0872 -540.5939 -1785.191 145 146 141 255 
-360.2594 -658.4848 -1821.968 97 101 103 255 
34.99323 306.517 -1660.761 93 102 113 255 
-102.8886 195.3728 -1594.354 4 13 20 255 
-741.133 -352.6038 -1809.279 112 112 108 255 
-577.4966 -389.4651 -1746.86 148 151 149 255 
123.1354 -20.6192 -1648.677 155 156 156 255 
-661.7415 243.531 -1764.119 140 138 135 255 
-740.7905 -444.885 -1828.036 144 142 137 255 
-726.392 564.4844 -1816.856 142 140 137 255 
499.123 -286.228 -1745.221 50 57 65 255 
55.39815 -570.8171 -1782.202 152 152 150 255 
294.505 -68.7857 -1768.343 93 95 93 255 
-409.7283 129.9235 -1645.773 4 11 20 255 
-525.8821 663.2538 -1822.581 137 143 144 255 
-302.8734 490.1979 -1679.72 137 141 142 255 
-667.5223 370.1613 -1762.593 146 144 142 255 
285.6801 -284.1298 -1701.423 56 61 67 255 
171.4948 322.5957 -1674.105 59 69 76 255 
-431.1706 -601.5226 -1825.053 45 39 33 255 
-576.402 -562.8663 -1816.619 78 79 69 255 
447.0807 -336.5759 -1721.856 42 52 63 255 
44.15442 -358.2076 -1599.111 80 82 72 255 
278.8547 618.6279 -1738.039 159 159 160 255 
-557.4361 -496.9112 -1803.848 130 131 127 255 
-250.0729 -645.9827 -1820.298 43 36 33 255 
166.5262 -171.9453 -1721.057 139 139 140 255 
416.7372 -360.9602 -1696.315 120 125 128 255 
-723.8248 -107.3551 -1734.959 36 44 57 255 
-660.765 -561.8984 -1838.97 89 90 84 255 
-496.2888 676.808 -1816.63 50 50 42 255 
-2.138993 -305.7881 -1578.13 54 55 49 255 
-153.7337 -702.6683 -1834.743 100 102 97 255 
-554.4723 -546.3285 -1814.38 95 88 73 255 
-380.4518 579.0507 -1759.245 130 129 129 255 
-404.5886 -494.6343 -1786.21 149 149 149 255 
71.33266 39.83673 -1626.316 150 151 153 255 
71.31351 39.8832 -1626.847 150 151 153 255 
-176.6612 -555.6205 -1809.34 103 103 99 255 
-252.638 -526.1467 -1785.745 96 97 91 255 
-252.638 -526.1467 -1785.745 96 97 91 255 
-558.2158 -520.6086 -1807.739 89 83 71 255 
404.3416 329.8585 -1769.36 157 158 157 255 
-535.9407 -473.7063 -1794.746 101 102 98 255 
-583.035 636.1086 -1816.536 144 141 138 255 
-620.1392 -166.8265 -1647.053 126 130 133 255 
91.93082 363.7197 -1686.873 136 145 153 255 
-587.3578 416.1447 -1757.553 154 155 154 255 
-522.9468 -633.0445 -1837.722 72 57 40 255 
-263.9119 -644.3757 -1816.879 87 80 69 255 
-263.9119 -644.3757 -1816.879 87 80 69 255 
-635.2231 -504.744 -1810.995 159 159 160 255 
-524.8095 -510.576 -1808.421 97 98 93 255 
16.31322 669.6747 -1756.721 128 133 135 255 
-356.7532 -81.41656 -1681.454 156 155 155 255 
-333.5723 650.1677 -1752.532 127 129 128 255 
235.7811 -312.5872 -1672.309 101 104 108 255 
235.7811 -312.5872 -1672.309 101 104 108 255 
-363.458 -549.9823 -1791.661 148 149 144 255 
412.0804 -320.7708 -1721.333 34 41 57 255 
-784.7742 221.5938 -1810.345 98 97 93 255 
-760.2025 -438.4829 -1824.531 66 61 52 255 
-411.6764 428.3919 -1736.375 131 129 126 255 
-744.109 -599.7386 -1876.375 3 2 1 255 
312.0546 229.0621 -1751.981 157 157 158 255 
-702.2305 232.5897 -1784.112 62 61 57 255 
-551.2445 291.0717 -1746.448 18 32 30 255 
217.1049 -91.79908 -1742.181 108 108 108 255 
-608.8937 -122.3697 -1676.582 44 57 68 255 
-689.4243 -53.10746 -1714.821 66 72 82 255 
31.46926 -641.1141 -1796.497 59 57 48 255 
-498.974 -500.5232 -1807.692 105 105 105 255 
-499.0037 -500.5103 -1807.68 105 105 105 255 
-476.2357 -460.0877 -1779.708 148 148 147 255 
-513.6166 237.5836 -1711.743 29 41 52 255 
-362.317 683.1416 -1755.244 131 131 132 255 
-370.2464 412.2823 -1698.681 27 31 35 255 
374.9554 109.5496 -1754.693 154 156 158 255 
-620.2011 621.0443 -1808.827 136 133 128 255 
-580.2998 141.6646 -1697.478 19 32 39 255 
-485.0995 193.8225 -1677.374 143 146 150 255 
550.433 -54.53094 -1807.626 98 98 96 255 
-699.2803 -114.7744 -1718.36 114 121 127 255 
336.0961 -396.3163 -1681.882 144 145 145 255 
-764.7592 116.3598 -1799.27 92 91 87 255 
325.9988 498.3806 -1733.781 157 158 158 255 
-332.3318 674.314 -1746.101 33 36 34 255 
529.2457 -78.48416 -1801.961 87 89 84 255 
529.2457 -78.48416 -1801.961 87 89 84 255 
-97.29237 282.4667 -1638.667 72 83 93 255 
306.9972 -487.1176 -1732.737 129 129 129 255 
-39.16808 541.9964 -1690.67 107 111 114 255 
-356.2285 238.1466 -1711.741 13 23 33 255 
376.9521 508.2301 -1743.101 149 153 156 255 
-527.3264 84.00169 -1664.058 149 151 150 255 
-707.975 430.1012 -1780.288 154 157 159 255 
-517.5943 668.4277 -1820.168 69 71 65 255 
249.5712 623.6808 -1728.601 14 19 23 255 
-556.136 -481.6998 -1802.407 153 153 152 255 
512.9099 -224.269 -1778.138 133 139 140 255 
143.1904 -283.6609 -1642.844 17 21 26 255 
-262.5641 -631.9813 -1811.173 81 76 70 255 
-509.2154 -238.0733 -1632.581 160 160 160 255 
-502.2406 654.0665 -1812.518 114 120 118 255 
403.9983 337.8728 -1769.364 95 97 96 255 
354.5773 -37.87343 -1776.95 75 75 73 255 
-132.9306 287.7268 -1643.599 73 86 97 255 
-73.01807 464.1155 -1671.22 5 9 11 255 
199.4944 -311.9035 -1657.367 29 41 55 255 
-290.4791 -521.6782 -1773.593 149 150 146 255 
469.8957 75.87453 -1793.865 120 118 113 255 
126.2127 -102.5212 -1673.947 110 110 110 255 
126.2127 -102.5212 -1673.947 110 110 110 255 
-166.8846 -327.7084 -1599.693 68 78 85 255 
-460.455 464.8492 -1760.793 70 73 69 255 
-341.5672 362.6446 -1707.42 28 30 34 255 
-562.1037 601.0114 -1797.482 143 139 136 255 
420.578 -398.5681 -1689.489 76 81 88 255 
30.63677 521.9787 -1712.99 67 68 59 255 
112.1411 43.43139 -1650.006 150 149 150 255 
-748.1911 86.04555 -1781.303 32 53 89 255 
92.22269 -259.5827 -1626.647 93 97 100 255 
92.22942 -259.5703 -1626.647 93 97 100 255 
-236.6363 -209.5407 -1648.578 130 134 136 255 
-504.2202 263.1527 -1723.359 142 143 144 255 
211.0759 458.9509 -1714.414 51 58 65 255 
211.0759 458.9509 -1714.414 51 58 65 255 
-121.9583 424.2832 -1672.78 13 15 16 255 
369.1157 148.2717 -1743.848 151 151 151 255 
83.97218 -216.6069 -1644.115 134 135 135 255 
-625.2362 -422.8514 -1787.803 156 156 155 255 
-731.102 138.6463 -1790.068 95 97 97 255 
-94.82555 303.6788 -1652.775 110 124 132 255 
-715.3267 -452.3248 -1826.651 118 119 115 255 
533.9618 59.08896 -1806.698 67 68 63 255 
67.26812 -219.3239 -1631.948 135 136 138 255 
-234.4554 386.1474 -1650.852 116 120 124 255 
-234.4554 386.1474 -1650.852 116 120 124 255 
-108.645 662.4773 -1736.115 154 155 155 255 
-705.4382 -558.6333 -1852.32 156 156 154 255 
-705.4382 -558.6333 -1852.32 156 156 154 255 
-547.7007 -624.7416 -1834.83 61 56 45 255 
-93.69846 -304.6723 -1557.924 137 139 140 255 
-589.6072 133.3468 -1710.386 133 135 136 255 
528.313 259.5242 -1793.316 113 112 106 255 
-652.5671 623.3488 -1808.344 149 150 146 255 
497.9149 -332.7054 -1721.949 47 51 60 255 
497.9149 -332.7054 -1721.949 47 51 60 255 
198.5524 15.67226 -1702.876 143 145 144 255 
147.6995 -625.3586 -1809.46 112 113 102 255 
436.938 -34.70497 -1787.488 42 45 40 255 
90.15104 89.84087 -1628.748 146 148 147 255 
411.5338 -52.04691 -1781.781 77 78 73 255 
377.9769 -399.4094 -1681.112 98 105 109 255 
351.1 -251.7793 -1755.464 30 35 38 255 
-282.1298 414.6477 -1641.179 124 126 131 255 
325.1996 3.432935 -1771.066 116 116 116 255 
325.1996 3.432935 -1771.066 116 116 116 255 
-741.7456 42.30142 -1760.78 141 144 148 255 
-78.35411 303.8082 -1652.537 103 116 123 255 
-689.0043 -428.999 -1816.498 114 114 114 255 
-304.9188 -67.02696 -1654.887 155 155 155 255 
-284.2241 -640.6059 -1810.717 44 41 36 255 
-263.3411 -255.9479 -1643.638 37 44 52 255 
-148.7378 283.9386 -1649.583 74 87 100 255 
-546.8431 -183.7021 -1644.932 39 48 63 255 
-469.2188 427.1656 -1755.979 72 75 62 255 
-228.6727 354.0263 -1667.423 62 67 73 255 
-205.7006 358.3661 -1662.3 137 140 146 255 
-422.778 149.5423 -1658.085 1 11 19 255 
-422.8751 149.5635 -1658.603 1 11 19 255 
-704.4823 311.6412 -1769.309 15 23 27 255 
-386.9127 -66.31981 -1682.191 101 101 99 255 
356.8272 421.7047 -1740.705 160 159 159 255 
-455.3853 619.7363 -1793.839 26 26 16 255 
-455.3853 619.7363 -1793.839 26 26 16 255 
-748.5341 -367.658 -1810.91 82 74 65 255 
-412.8081 624.9642 -1776.745 9 10 4 255 
-402.0009 170.7147 -1670.261 26 36 47 255 
-300.3872 174.3067 -1653.388 2 11 19 255 
-469.7329 675.9802 -1808.817 133 125 116 255 
-469.7329 675.9802 -1808.817 133 125 116 255 
492.6356 -292.3651 -1744.497 136 137 140 255 
484.9245 -436.3566 -1743.486 119 124 126 255 
449.8228 -374.455 -1700.117 105 110 115 255 
-580.0701 608.934 -1796.917 140 135 131 255 
238.1867 602.8607 -1724.351 160 161 160 255 
-227.7354 521.8217 -1694.426 136 143 146 255 
-317.2867 -588.4067 -1802.663 130 131 125 255 
-289.8096 -612.7693 -1798.142 139 139 131 255 
226.1075 -549.2014 -1763.105 142 142 143 255 
-628.7092 558.2969 -1783.575 156 155 150 255 
500.2028 333.5152 -1795.53 122 121 122 255 
500.2028 333.5152 -1795.53 122 121 122 255 
-430.8224 -631.2195 -1832.323 83 76 67 255 
-486.6703 -497.6959 -1806.912 93 95 93 255 
-585.6336 -453.6285 -1786.141 156 156 156 255 
-440.5018 679.74 -1797.153 57 54 45 255 
-627.6072 -70.63236 -1708.585 49 65 77 255 
-646.7199 -72.36581 -1703.564 36 40 46 255 
-729.2996 -8.008117 -1751.636 141 145 148 255 
337.6835 3.023089 -1773.818 125 125 125 255 
-109.6728 612.6321 -1714.527 142 147 150 255 
390.738 182.8405 -1763.617 138 138 136 255 
352.6434 143.5154 -1731.557 108 109 108 255 
-246.507 -244.8723 -1641.006 39 47 54 255 
-226.3566 208.5818 -1653.601 14 24 34 255 
131.8134 290.3393 -1648.786 145 152 155 255 
-541.782 80.20961 -1673.353 141 143 146 255 
-762.2853 141.8871 -1801.883 126 126 121 255 
151.8078 381.1946 -1695.101 109 120 126 255 
-219.8103 496.1744 -1677.347 138 145 148 255 
513.8881 11.00269 -1800.147 51 50 46 255 
-212.5241 -3.143888 -1560.03 117 118 120 255 
210.6496 275.5204 -1710.933 20 24 29 255 
210.6496 275.5204 -1710.933 20 24 29 255 
-108.8835 106.3629 -1548.438 10 17 23 255 
461.9272 113.165 -1786.696 59 60 55 255 
-183.3512 674.5548 -1753.573 135 138 144 255 
-82.47733 -623.5729 -1819.642 76 78 73 255 
459.989 592.2201 -1802.419 148 149 150 255 
-404.0401 -525.1579 -1798.779 144 145 142 255 
-476.5035 459.9944 -1764.339 64 66 58 255 
-674.465 292.076 -1760.823 156 157 158 255 
-117.7685 610.907 -1715.93 7 9 11 255 
418.726 -333.0882 -1719.069 32 43 53 255 
162.9068 -8.75015 -1674.445 153 153 154 255 
-281.7295 -545.3445 -1789.412 151 152 147 255 
371.5795 471.3014 -1761.922 155 155 155 255 
-342.5382 450.4325 -1686.612 22 31 38 255 
-441.9208 -267.7284 -1628.591 145 145 146 255 
-479.9011 231.7726 -1702.956 30 41 53 255 
474.549 -113.3625 -1792.718 132 131 129 255 
-710.1852 -545.2948 -1850.037 154 153 151 255 
-359.2243 130.5994 -1635.33 63 75 84 255 
-343.9567 507.9609 -1700.709 93 97 103 255 
110.086 341.3682 -1671.715 110 120 127 255 
6.002941 679.2509 -1761.233 142 146 148 255 
462.9099 -285.1388 -1740.799 61 70 76 255 
42.99114 -243.8947 -1609.883 117 118 120 255 
42.99114 -243.8947 -1609.883 117 118 120 255 
-576.755 599.5715 -1795.748 125 125 120 255 
507.1092 -108.1881 -1797.87 85 86 82 255 
18.01691 -674.5405 -1789.785 117 117 115 255 
317.139 -598.1275 -1806.278 34 35 35 255 
479.2255 102.7667 -1793.126 122 123 118 255 
-296.5434 -541.5872 -1786.679 75 74 68 255 
-28.92962 251.528 -1617.579 58 67 78 255 
208.2683 532.1335 -1721.955 61 63 56 255 
-664.1549 260.8711 -1762.859 150 149 146 255 
181.8683 -92.01201 -1716.932 146 146 146 255 
-410.0485 661.8011 -1785.897 114 108 96 255 
-732.0124 97.46728 -1781.312 18 27 38 255 
365.3627 -357.9194 -1690.889 107 111 117 255 
