ply
format ascii 1.0
element vertex 460
property float x
property float y
property float z
property uchar diffuse_red
property uchar diffuse_green
property uchar diffuse_blue
property int32 number_of_camera_sees_this_point
property float vsfm_cnx
property float vsfm_cny
property float vsfm_cnz
end_header
0.982109665871 2.48013091087 12.3236112595 90 90 90 2 -0.115021106261 -0.195139806383 -0.974007495392
0.982109665871 2.48013091087 12.3236112595 90 90 90 2 -0.115021106261 -0.195139806383 -0.974007495392
-3.40800261497 1.01401281357 12.0605945587 135 140 145 2 0.232450551435 -0.0815134496376 -0.96918641069
-1.6624622345 -3.19269442558 13.2021036148 115 117 120 2 0.0854992018744 0.231941100552 -0.968965021223
-0.192163228989 -2.38481068611 13.0898551941 22 22 28 2 -0.0219793422964 0.177261606105 -0.983918305305
-0.339112639427 2.20009613037 12.0571584702 55 67 77 2 -0.0119437367846 -0.178759805732 -0.983820247305
-4.49673557281 0.0526923723519 13.591301918 36 47 59 2 0.280735172802 -0.00430651504702 -0.959775607462
-4.49673557281 0.0526923723519 13.591301918 36 47 59 2 0.280735172802 -0.00430651504702 -0.959775607462
0.432920694351 2.88328504562 13.3285837173 67 72 70 2 -0.0667551466517 -0.210077611311 -0.975403069311
0.432920694351 2.88328504562 13.3285837173 67 72 70 2 -0.0667551466517 -0.210077611311 -0.975403069311
-2.84222602844 1.0235272646 12.6829776764 43 54 70 2 0.180381697122 -0.0791721884182 -0.980405124387
-3.01641702652 -1.33034598827 13.1178121567 22 35 46 2 0.186808252345 0.0977428246806 -0.977521875499
-4.1499376297 1.04189622402 12.8594665527 113 119 126 2 0.27082480329 -0.0777868934807 -0.959480653857
-0.535179138184 -1.34438204765 12.727388382 11 20 31 2 0.00372688240353 0.103573255624 -0.994614845589
-3.62229251862 -1.31124639511 13.6587362289 115 123 129 2 0.220972410301 0.091918920881 -0.970938775552
-1.50372982025 -1.18219280243 12.967382431 18 29 38 2 0.0771533450754 0.089180105186 -0.993022794392
-1.50372982025 -1.18219280243 12.967382431 18 29 38 2 0.0771533450754 0.089180105186 -0.993022794392
1.26568090916 1.66269779205 12.6052436829 139 140 142 2 -0.135335271926 -0.129238164779 -0.982334902636
0.371059417725 -1.39165747166 12.1391324997 4 7 14 2 -0.06938914052 0.112019857814 -0.991280333021
-4.63211107254 0.370699316263 13.52942276 125 130 137 2 0.290533598878 -0.0266288629195 -0.95649418795
0.0566139742732 -1.45332956314 12.3476963043 7 17 26 2 -0.0432762911608 0.115183508762 -0.992401089244
-0.0673025548458 0.383646667004 11.2646875381 146 147 148 2 -0.0367901080916 -0.0344814826432 -0.998727948593
-3.50938749313 -1.46025002003 13.6401691437 21 32 42 2 0.213435976774 0.102637417798 -0.971550639075
-0.421884924173 1.80047893524 12.3996706009 100 109 116 2 -0.00514580963431 -0.143252957493 -0.989672729145
-3.51550722122 1.13338959217 12.0573225021 122 126 131 2 0.240383600413 -0.0907926140362 -0.966422488298
0.164106726646 -0.684897005558 11.5060319901 10 18 23 2 -0.0558048123808 0.0580794478505 -0.996751022399
-0.805020987988 -1.49147152901 13.1272506714 9 19 28 2 0.0238458127591 0.111376375021 -0.993492164187
0.822352051735 -1.60082709789 12.5479230881 4 6 11 2 -0.102040510791 0.124254709941 -0.986989615556
-0.788749754429 -0.018346503377 11.9274168015 43 44 43 2 0.0250542337838 0.000801725355115 -0.999685771933
-3.08653569221 1.11207902431 12.1240730286 132 136 139 2 0.206877921217 -0.0893326751282 -0.974279836016
-3.88952898979 0.75893086195 12.7984170914 127 133 137 2 0.254319333906 -0.0574587527454 -0.9654119163
-0.166649520397 -2.0814204216 13.0511465073 82 94 104 2 -0.024035654102 0.155651181909 -0.98751961849
-3.87588953972 1.12555086613 12.5567083359 29 42 70 2 0.25734010457 -0.0862567879661 -0.96246342118
0.218260750175 -1.30788195133 12.1012935638 7 14 22 2 -0.0572910010211 0.105716005385 -0.992744613386
-1.41744196415 -3.30926322937 12.8825750351 15 18 20 2 0.0691864613072 0.245812511946 -0.966845097491
-0.281425207853 -1.49026358128 12.7022752762 10 19 28 2 -0.0159313225008 0.114952692925 -0.993243208561
-1.53590917587 -2.91228556633 13.1347875595 98 102 105 2 0.077068464186 0.213665160848 -0.973862234029
-4.26529502869 1.12409365177 12.939789772 32 44 71 2 0.276996655959 -0.0831634779233 -0.957265213265
0.759166836739 -1.53240740299 12.2991046906 8 14 21 2 -0.0991210592893 0.121382146488 -0.987644364192
-4.20003128052 0.85993373394 12.9710302353 110 117 125 2 0.2723592002 -0.0638055055709 -0.960077769519
-0.141448184848 -0.0457303002477 10.92786026 134 136 137 2 -0.031223725245 0.00335744647158 -0.999506781635
-0.660380840302 -1.46657085419 12.9314241409 13 22 32 2 0.0131965528101 0.111176770872 -0.993713025281
1.9193161726 -1.35982406139 12.9537582397 144 147 149 2 -0.180147147511 0.101281756062 -0.978411473324
-2.33331084251 -1.66314911842 13.5898742676 1 9 17 2 0.132533903423 0.118923481962 -0.984018277209
0.626695096493 -0.746335506439 11.408082962 148 149 150 2 -0.0959491418316 0.0636787021628 -0.993347263082
-2.55556058884 0.983667194843 12.7591915131 140 143 142 2 0.15814466033 -0.0759790614716 -0.984488419753
1.71543550491 2.33889842033 12.1256427765 46 54 60 2 -0.173977621604 -0.185718013747 -0.967078386973
-1.37677133083 -0.630474030972 12.1873207092 91 101 110 2 0.072030209439 0.0504088796267 -0.996127799925
-4.51084566116 -0.00751938205212 13.568116188 139 143 147 2 0.282086534185 -8.56841564196e-005 -0.95938896173
0.804658412933 2.00623178482 11.7783679962 59 59 57 2 -0.106426765693 -0.166305344617 -0.980314172037
-0.23673003912 -1.24811828136 12.4078044891 0 5 10 2 -0.0198775194234 0.0985964617465 -0.994928953219
0.168145805597 -1.40070641041 12.2753772736 69 82 91 2 -0.0524562266613 0.11163261747 -0.992364098001
-3.29882001877 2.94867300987 13.6145124435 36 45 71 2 0.196272012339 -0.20669978511 -0.958515777652
0.913796842098 -1.65907239914 12.4913368225 22 23 30 2 -0.109496985226 0.129191532005 -0.985555659658
-1.41648566723 -0.719112813473 12.1694507599 70 83 92 2 0.075306222486 0.0576422196356 -0.995493017238
1.32679247856 1.23447465897 13.0517435074 117 117 117 2 -0.135865498581 -0.0932399353134 -0.986330006011
1.32679247856 1.23447465897 13.0517435074 117 117 117 2 -0.135865498581 -0.0932399353134 -0.986330006011
-4.47019910812 1.67397248745 13.3486537933 125 125 126 2 0.281632541278 -0.119129027965 -0.952098412135
-2.34459257126 -1.53853273392 13.3537416458 133 141 143 2 0.135734107035 0.111939410531 -0.984401249774
-2.34459257126 -1.53853273392 13.3537416458 133 141 143 2 0.135734107035 0.111939410531 -0.984401249774
-1.42792618275 -2.89048337936 12.9947891235 17 22 26 2 0.0698988282528 0.214411427763 -0.974239135661
-1.42792618275 -2.89048337936 12.9947891235 17 22 26 2 0.0698988282528 0.214411427763 -0.974239135661
-0.559816479683 -2.17262148857 13.4575824738 95 108 116 2 0.00528101675032 0.157621368334 -0.987485501213
-1.66355168819 -2.99320435524 13.2489213943 114 118 119 2 0.0855747252841 0.217397647845 -0.972324652112
0.65211391449 2.45054888725 12.412352562 75 76 73 2 -0.0888564427922 -0.192107610144 -0.977342927891
-3.0861582756 -1.50266396999 13.2934417725 33 45 57 2 0.189131917497 0.1088570084 -0.975899210731
-2.92949938774 1.16811859608 12.3021001816 66 73 76 2 0.192127079199 -0.0927092035062 -0.976981161038
-0.731673657894 1.98739230633 12.4140176773 125 130 135 2 0.0192781024082 -0.15749775346 -0.987331156412
-1.28018438816 -2.79262280464 13.1162614822 50 51 51 2 0.0585362416787 0.205776344114 -0.976846766189
-0.0840351730585 -2.93696188927 13.2569971085 34 37 43 2 -0.0294386094892 0.214065573693 -0.97637559291
-2.63514328003 1.3634301424 11.6819458008 45 63 81 2 0.177932993159 -0.113838345493 -0.977435768243
0.281041651964 -3.51240038872 12.9297685623 41 47 53 2 -0.056779699073 0.259274284204 -0.964133243553
-0.760970771313 -2.71288943291 12.8603878021 61 65 66 2 0.0206494153975 0.20421939371 -0.978707331574
1.66982758045 2.79838323593 12.6502199173 150 150 147 2 -0.162802604597 -0.212159463303 -0.963578577007
-0.476613014936 1.87130284309 12.4546012878 109 116 122 2 -0.000815819821233 -0.148104403722 -0.988971394953
-0.0118721770123 -3.39203023911 12.8260307312 21 24 28 2 -0.0355086933089 0.253072153976 -0.966795540733
-0.238080143929 -3.00112628937 12.9458589554 150 151 152 2 -0.0185858594226 0.223546798048 -0.974515979814
1.39479064941 2.64298152924 12.4430398941 85 86 79 2 -0.145042913878 -0.204664792828 -0.968026278419
-1.65512084961 2.20693159103 12.371052742 153 155 157 2 0.0917019055349 -0.174194846751 -0.980432004724
0.0570524819195 -0.397562801838 11.1529998779 0 4 8 2 -0.0481465936617 0.0344999150774 -0.998244289429
-0.645215213299 -0.759188115597 12.0487127304 8 15 26 2 0.0129867322711 0.0616565188629 -0.99801293502
0.807515561581 2.06375861168 11.8698062897 154 154 154 2 -0.10579719124 -0.169658846372 -0.979807547518
-2.75285673141 -0.78867483139 12.5712490082 135 142 147 2 0.17545931284 0.0604851271705 -0.982626876759
-2.75285673141 -0.78867483139 12.5712490082 135 142 147 2 0.17545931284 0.0604851271705 -0.982626876759
-0.895313680172 -0.0905898138881 11.9426651001 144 145 146 2 0.0338446407506 0.00679611387175 -0.999403998956
-1.91138339043 -0.89738881588 12.5511598587 2 12 20 2 0.111451739093 0.0696381633072 -0.991326906759
-3.08263063431 -0.0150834582746 13.4109535217 119 125 123 2 0.188422759531 0.00046204286785 -0.982087903503
-3.08263063431 -0.0150834582746 13.4109535217 119 125 123 2 0.188422759531 0.00046204286785 -0.982087903503
0.289411246777 -3.38421177864 13.1436061859 32 35 37 2 -0.0566694321365 0.246602324421 -0.967458458566
-0.00232246308587 -1.79142141342 12.7635793686 74 87 96 2 -0.0372519385137 0.137189510245 -0.989844094469
-3.55363798141 -1.33448123932 13.5960178375 16 26 35 2 0.217262832312 0.0940484167191 -0.971571797146
-4.04299974442 0.528086602688 12.7706861496 68 75 82 2 0.265753276101 -0.0401749264242 -0.96320359817
-3.20160055161 0.925132155418 12.7107973099 47 58 67 2 0.206493484303 -0.0711383897358 -0.975858478698
-0.294581472874 -0.00757929636165 11.1927852631 137 137 138 2 -0.0169762333941 -9.86147422882e-005 -0.999855888503
-1.62134277821 0.353400409222 13.2344322205 156 156 156 2 0.0846145506604 -0.0270500714021 -0.996046520728
-2.78697729111 1.36805391312 11.6120491028 57 69 80 2 0.191136481983 -0.114599563723 -0.974850647663
0.885152637959 -1.70312035084 12.5678396225 82 91 103 2 -0.106609614579 0.131833852399 -0.985522310981
0.885152637959 -1.70312035084 12.5678396225 82 91 103 2 -0.106609614579 0.131833852399 -0.985522310981
-2.5919854641 1.2129253149 12.055062294 46 58 78 2 0.169559719887 -0.0985568179123 -0.980579448609
-0.977641284466 -3.77153754234 13.0572223663 137 142 147 2 0.035764721556 0.274803807618 -0.960834924433
-4.45455169678 -0.0066528711468 13.5655965805 67 71 79 2 0.278494850234 -0.000146659940475 -0.96043771109
-2.71605277061 -0.707004547119 12.4953355789 147 152 155 2 0.173762799157 0.0545140844022 -0.983277531641
-2.71605277061 -0.707004547119 12.4953355789 147 152 155 2 0.173762799157 0.0545140844022 -0.983277531641
1.44801652431 1.92311775684 12.390920639 126 130 133 2 -0.15113097827 -0.151097596045 -0.976897611767
-0.866353392601 -3.71883630753 13.0181713104 70 80 89 2 0.0277607159366 0.27205782704 -0.9618803883
-1.36608660221 -2.81393814087 13.1836719513 64 65 67 2 0.0645172796308 0.206200802868 -0.976380432785
1.10769736767 1.9850922823 11.901468277 36 50 76 2 -0.129770208704 -0.162511028156 -0.978135910117
-0.240993797779 -1.19368195534 12.4407043457 15 26 34 2 -0.0194967525874 0.0940608961645 -0.995375519315
-0.271198034286 0.318078190088 11.542845726 79 82 87 2 -0.0184717881837 -0.0280526919674 -0.999435760574
-2.75025177002 1.11089944839 12.4292192459 105 113 121 2 0.176829345703 -0.0876065093543 -0.980334882587
-2.75025177002 1.11089944839 12.4292192459 105 113 121 2 0.176829345703 -0.0876065093543 -0.980334882587
-0.157202243805 1.67962527275 12.2045574188 107 114 122 2 -0.0264997322666 -0.135899387061 -0.99036817436
-0.315962910652 -3.03836393356 12.5318489075 125 128 129 2 -0.01315864113 0.233223619389 -0.972334095629
-0.315962910652 -3.03836393356 12.5318489075 125 128 129 2 -0.01315864113 0.233223619389 -0.972334095629
-3.41137862206 1.50695669651 12.3375396729 137 139 140 2 0.226976970876 -0.117814288799 -0.966747768576
-3.28837823868 0.960069060326 12.2312793732 46 60 76 2 0.220574268295 -0.0763957863176 -0.972373732676
-3.28837823868 0.960069060326 12.2312793732 46 60 76 2 0.220574268295 -0.0763957863176 -0.972373732676
-3.22712278366 0.984880626202 12.3628454208 50 61 70 2 0.213788936465 -0.0776381011594 -0.973789821211
-0.380568027496 2.33779096603 12.2124023438 61 63 65 2 -0.00847585052857 -0.187215690555 -0.98228226349
-1.51232612133 2.21785306931 12.2458772659 149 152 153 2 0.0813434779562 -0.176906027408 -0.980860589513
-3.61497139931 1.13799023628 12.18475914 36 50 71 2 0.245404209938 -0.0901008456793 -0.965224642947
1.06750881672 1.95413541794 11.9599695206 34 45 59 2 -0.126017493535 -0.159375261296 -0.979142031275
-3.57109189034 0.98530292511 12.3349170685 125 131 137 2 0.239674624821 -0.0773638907588 -0.9677659338
-3.57109189034 0.98530292511 12.3349170685 125 131 137 2 0.239674624821 -0.0773638907588 -0.9677659338
-3.00773453712 0.875512778759 13.0079421997 53 67 78 2 0.188184139854 -0.0661046789283 -0.979906577655
-0.394177764654 -2.35528612137 13.1911182404 118 124 127 2 -0.00688289042111 0.173870394668 -0.984744490555
-2.21127843857 -1.59766209126 13.6294298172 27 39 49 2 0.123633818252 0.11408751443 -0.985747796364
-1.16200530529 2.27600908279 12.4614133835 80 86 85 2 0.0527200477761 -0.178708571367 -0.982488596922
-1.16200530529 2.27600908279 12.4614133835 80 86 85 2 0.0527200477761 -0.178708571367 -0.982488596922
-3.517380476 0.861946642399 12.4018478394 130 134 139 2 0.234713677154 -0.0675363423133 -0.969715593473
-0.39571288228 0.410764276981 11.9431753159 136 139 137 2 -0.00754985519687 -0.0348101525492 -0.99936542514
1.70775306225 -1.41754603386 12.6835432053 64 68 71 2 -0.168015192885 0.107999563176 -0.979850493348
0.331218212843 -2.2404589653 13.2346134186 88 102 111 2 -0.0603486541749 0.164781092728 -0.984482214882
-0.403889894485 1.51610946655 12.6216344833 83 94 101 2 -0.00647757568354 -0.119012928176 -0.992871574747
-1.21452522278 2.02446556091 12.3615665436 121 131 138 2 0.0574430637866 -0.160769103113 -0.985319029506
-1.41881513596 -3.60040330887 13.0152072906 111 118 126 2 0.068259894975 0.263527301285 -0.9622338324
1.69476950169 -1.91521143913 12.9258918762 38 42 48 2 -0.163312976458 0.142890645823 -0.976171672943
-1.30743980408 -0.635137975216 12.2393913269 92 102 111 2 0.0661643102866 0.0505929907874 -0.996525279824
-2.29022717476 -1.91501760483 13.9104366302 19 28 37 2 0.126342441736 0.133744907348 -0.982929238132
-0.0535574294627 2.07047510147 11.8058099747 48 57 69 2 -0.0357733785217 -0.171934297115 -0.984458664884
-0.0535574294627 2.07047510147 11.8058099747 48 57 69 2 -0.0357733785217 -0.171934297115 -0.984458664884
-2.49033999443 0.779909312725 13.1524391174 70 80 85 2 0.14901267702 -0.0587420503542 -0.987088949187
-3.29914951324 0.610111415386 13.3098230362 138 144 146 2 0.20477467346 -0.0451234609104 -0.977768483019
-0.881476759911 -2.64523792267 13.06965065 52 57 61 2 0.029306167049 0.196228749908 -0.98012010809
-0.512223064899 -0.843004226685 12.10384655 9 17 28 2 0.00206707787075 0.0682095326994 -0.99766887635
-0.323489427567 -1.55391669273 12.7502346039 2 9 17 2 -0.012620063687 0.119386629536 -0.992767629751
0.205187916756 -0.681088685989 11.4236383438 2 2 9 2 -0.0597343807549 0.0581519275675 -0.996519019927
0.586733698845 -2.28181147575 13.3978271484 87 99 107 2 -0.0781277525626 0.165572236734 -0.983098107364
-3.70460104942 -1.15284669399 13.6976127625 127 133 136 2 0.226097447888 0.0804992231648 -0.970772794802
-3.70460104942 -1.15284669399 13.6976127625 127 133 136 2 0.226097447888 0.0804992231648 -0.970772794802
-0.697761714458 1.76304614544 12.6638755798 60 69 76 2 0.0163292259854 -0.137481270296 -0.990369757564
-0.697761714458 1.76304614544 12.6638755798 60 69 76 2 0.0163292259854 -0.137481270296 -0.990369757564
-1.04770326614 -0.389032661915 11.8925065994 141 146 149 2 0.046618757096 0.0316653054179 -0.998410737081
-0.188665881753 -3.01807165146 12.9571838379 22 23 24 2 -0.0222464182339 0.224547169299 -0.974209251463
-3.09170365334 0.610872507095 13.5091495514 46 55 72 2 0.187557320488 -0.0446751094326 -0.981237171192
-3.09170365334 0.610872507095 13.5091495514 46 55 72 2 0.187557320488 -0.0446751094326 -0.981237171192
0.345566362143 1.85235881805 11.3559761047 121 128 133 2 -0.0714115645878 -0.15995481132 -0.984537884888
-0.424860298634 1.69016706944 12.5241146088 104 113 120 2 -0.00487061088411 -0.133377973502 -0.99105327472
0.700648605824 -1.14743709564 11.8365468979 8 13 20 2 -0.0984035326934 0.0945173659978 -0.990647875018
0.700648605824 -1.14743709564 11.8365468979 8 13 20 2 -0.0984035326934 0.0945173659978 -0.990647875018
-2.348747015 -1.26671421528 12.9122629166 27 38 45 2 0.140795869724 0.09527374365 -0.9854437766
-2.348747015 -1.26671421528 12.9122629166 27 38 45 2 0.140795869724 0.09527374365 -0.9854437766
-2.10778260231 -1.00958788395 12.6725511551 14 24 34 2 0.125330789742 0.0775086076889 -0.989082710837
-2.95500802994 1.23010206223 11.9429340363 141 145 147 2 0.199457853425 -0.100274428219 -0.974762331931
-2.42403483391 0.154363289475 13.254076004 155 155 155 2 0.143348428852 -0.0120856923418 -0.989598486249
-0.785319685936 1.92902803421 12.4936037064 122 130 132 2 0.0233735517858 -0.152044164872 -0.988097287217
-1.31141710281 2.09854483604 12.265794754 86 100 108 2 0.0654873070401 -0.167636392282 -0.983671414955
-1.56587648392 2.31852769852 12.404340744 153 154 154 2 0.0843996559993 -0.182328398328 -0.979608622477
-1.56587648392 2.31852769852 12.404340744 153 154 154 2 0.0843996559993 -0.182328398328 -0.979608622477
-3.83953595161 0.615274965763 12.678606987 126 133 138 2 0.253152847944 -0.0471863914879 -0.966274847047
-1.45466172695 -0.412303179502 12.1899423599 62 69 71 2 0.0783392173129 0.0327224144259 -0.996389587774
-2.37766432762 0.808519124985 13.161072731 84 96 100 2 0.140694899467 -0.0609005810187 -0.988178154229
-1.74140298367 -2.90121507645 13.6348810196 49 50 52 2 0.0888895277858 0.205267773647 -0.97466086048
-1.35079157352 -0.439763605595 12.1775989532 118 123 125 2 0.0700393545564 0.035003126678 -0.996929922279
-3.26002907753 -1.28629660606 13.2382116318 31 44 53 2 0.202399439487 0.0933749905454 -0.974841309155
-0.449212789536 -0.096125677228 11.3094358444 118 121 122 2 -0.00327905375459 0.00766329004369 -0.999965260293
-0.449212789536 -0.096125677228 11.3094358444 118 121 122 2 -0.00327905375459 0.00766329004369 -0.999965260293
-3.25389170647 0.980518937111 12.2650938034 123 127 132 2 0.217398419696 -0.077843086498 -0.972973987832
-3.88713026047 1.08173525333 12.5823421478 125 130 134 2 0.257726945259 -0.0827746151717 -0.962665666143
-0.634458422661 0.33404943347 12.1344251633 139 139 139 2 0.0120384795965 -0.0280039901564 -0.999535317807
-1.15023088455 -2.86537718773 12.6170578003 146 151 153 2 0.0507395051937 0.218900258682 -0.974427103154
-3.74416065216 0.848896622658 12.6208848953 118 126 131 2 0.247191801492 -0.065180124555 -0.966771826564
-1.45128524303 -3.19521307945 12.851146698 94 100 106 2 0.0720022476525 0.238305776187 -0.968517440921
-3.35942292213 2.63269257545 13.5269584656 150 150 150 2 0.202396867897 -0.186361795105 -0.961407712259
-3.35942292213 2.63269257545 13.5269584656 150 150 150 2 0.202396867897 -0.186361795105 -0.961407712259
-2.48669886589 -1.9174516201 13.7179279327 9 19 30 2 0.141722389236 0.135458419968 -0.980594605762
0.642075061798 -0.648904800415 11.599023819 118 118 119 2 -0.0957503454244 0.0543969231566 -0.993917927247
-0.897034406662 2.23859119415 12.4141998291 142 144 147 2 0.0321873285133 -0.176670885039 -0.983743551065
-0.3677534163 -1.72794246674 13.1889982224 1 7 17 2 -0.00889886002671 0.128307038501 -0.991694566972
-1.06412279606 -2.51443696022 13.5827627182 139 141 147 2 0.0413848994731 0.179989382485 -0.982797594771
-0.898224115372 -2.90686273575 12.3813314438 29 32 38 2 0.0320238246308 0.226078718549 -0.97358250173
1.02993750572 2.08236527443 11.886218071 145 148 150 2 -0.123527595459 -0.170558367422 -0.977573923784
0.469427525997 1.83532977104 11.4531459808 121 125 131 2 -0.0813275867404 -0.157108596695 -0.984226961874
-1.31576573849 2.18001008034 12.271985054 129 133 138 2 0.0657265282873 -0.173836659792 -0.982578668195
-1.31576573849 2.18001008034 12.271985054 129 133 138 2 0.0657265282873 -0.173836659792 -0.982578668195
-2.54743814468 1.28790676594 11.8917798996 48 64 83 2 0.168136633812 -0.105973197023 -0.980050893517
-3.65722250938 1.20015192032 12.2355918884 37 45 75 2 0.247454236277 -0.0945010164062 -0.964280020973
1.28955614567 -2.09050703049 13.1320323944 21 25 30 2 -0.131335343514 0.154086931053 -0.979289663594
-0.813239216805 -3.80475735664 13.1312971115 58 69 77 2 0.0236427802004 0.275711359528 -0.960949668386
-2.41038894653 -0.768297851086 12.2263031006 100 110 117 2 0.153665470446 0.0607772934792 -0.986252018396
1.25696563721 -1.7962886095 12.6630706787 65 71 77 2 -0.133932081122 0.137469662103 -0.981409338476
-0.961768388748 0.575744986534 12.9223070145 147 147 146 2 0.0363448615584 -0.0448084184778 -0.998334240959
-1.06642329693 -4.08127212524 13.3516187668 124 130 134 2 0.0411176721383 0.289535900447 -0.956283587327
-0.532930135727 -0.411370456219 11.5794935226 11 18 25 2 0.00394362198779 0.0344587067621 -0.999398341691
1.42354488373 2.69925141335 12.5362186432 145 145 141 2 -0.146069648425 -0.207312613661 -0.967308191853
-1.50771343708 -1.76150035858 13.919090271 9 19 29 2 0.0719562922372 0.123746721705 -0.989701490791
-2.61692118645 0.326968669891 13.3877010345 151 152 153 2 0.155732511608 -0.024578208041 -0.987493441253
0.731567502022 2.01549577713 11.6867017746 147 147 147 2 -0.101200405211 -0.168402883543 -0.980509534273
-1.82585787773 -3.54212760925 13.5416469574 36 43 49 2 0.0944502311711 0.249630880836 -0.963723807512
0.283707082272 -0.518054306507 11.2118768692 12 16 22 2 -0.0677605707925 0.0448849053258 -0.996691451915
-1.59858107567 -2.86619639397 13.4786462784 103 105 108 2 0.07973691125 0.205282310095 -0.975449228892
-0.491205841303 0.190465003252 11.7852306366 77 78 80 2 0.000369831007359 -0.0167559710216 -0.999859540466
-2.51637482643 -1.52817177773 13.1388044357 19 32 43 2 0.150352055016 0.112731487552 -0.98218423489
-0.486100524664 -2.91077685356 12.391869545 151 152 154 2 -7.8191907969e-005 0.226305035482 -0.974056479267
-4.58801031113 0.185643091798 13.5666036606 124 132 138 2 0.287057522807 -0.0136234182511 -0.957816465235
0.207566380501 -0.276029348373 11.0737104416 18 23 26 2 -0.0618801887653 0.0238757714069 -0.997797970422
-2.07242774963 -1.0901389122 12.8053979874 5 15 25 2 0.121343848703 0.0828896718676 -0.989143555142
-2.07242774963 -1.0901389122 12.8053979874 5 15 25 2 0.121343848703 0.0828896718676 -0.989143555142
-1.36180615425 -1.72670912743 13.8316469193 4 13 22 2 0.0621091202337 0.122158637817 -0.990565355941
1.22354400158 1.29865324497 12.8657197952 100 100 100 2 -0.129986657022 -0.0994788487367 -0.986512761017
-0.122309401631 -3.10036659241 12.92689991 22 22 24 2 -0.0272097697351 0.230844700715 -0.972610072219
-0.601989507675 0.940539836884 12.7168397903 109 109 108 2 0.00893404400526 -0.0738613454756 -0.99722850165
-2.68067264557 0.233803063631 13.3994102478 151 153 155 2 0.160163874617 -0.0177314537593 -0.986931167212
-0.247881218791 1.69596791267 12.3361721039 108 115 121 2 -0.019014877423 -0.135788110097 -0.990555411672
0.622335970402 -1.21055543423 11.9064998627 1 4 10 2 -0.0914011064184 0.0991960312054 -0.990861234048
-0.342356860638 -2.47587966919 13.31798172 105 112 118 2 -0.01060473026 0.180840312959 -0.983455296851
0.763202309608 -0.935190200806 11.4709119797 10 14 18 2 -0.106890487601 0.0793675805878 -0.991097982448
-0.575480699539 2.38214802742 12.372792244 136 137 138 2 0.0069572574972 -0.188264999286 -0.982093624158
-0.236892342567 -0.982132196426 12.0243024826 3 8 15 2 -0.0205173852114 0.0800196937919 -0.996582101741
-2.44287109375 0.930200099945 12.868973732 65 75 78 2 0.148541835987 -0.0714099526063 -0.986324460627
-1.27192795277 0.451086908579 13.0279922485 128 128 128 2 0.0595631187469 -0.0349422086766 -0.997612789081
-4.18982076645 0.548608541489 12.9648590088 39 48 57 2 0.272109435406 -0.0410135482319 -0.961391878489
-3.22428131104 -0.86989992857 13.0431404114 138 139 142 2 0.203207434929 0.0640196098857 -0.977040545699
-0.261041253805 -3.04112195969 12.7467432022 155 155 155 2 -0.0171068476184 0.229713632393 -0.973107909154
1.55653083324 -0.695078134537 12.9727554321 105 105 105 2 -0.154054769794 0.051812783042 -0.986702874941
-3.48433494568 1.19424498081 12.0489902496 72 79 85 2 0.238095072197 -0.0957050461046 -0.966515018376
-0.691356480122 2.2614235878 12.4408807755 120 128 136 2 0.0160097437726 -0.178111247966 -0.983880110304
-4.70512866974 1.30694305897 13.2536058426 115 125 131 2 0.299539363762 -0.0935503967682 -0.949486436355
-2.86345887184 -0.899445950985 12.7001838684 22 36 46 2 0.181863159235 0.068262892536 -0.98095156293
1.29199373722 -1.36576163769 12.1112241745 120 129 135 2 -0.143093919522 0.10932831173 -0.98365209828
1.29199373722 -1.36576163769 12.1112241745 120 129 135 2 -0.143093919522 0.10932831173 -0.98365209828
-1.81498551369 1.61055576801 12.526720047 148 151 152 2 0.103608989881 -0.126520914164 -0.986538207823
-3.13327407837 0.877435445786 13.0434522629 40 51 62 2 0.196689802216 -0.065957364615 -0.978244727948
1.17913103104 -1.50216543674 12.2616920471 12 16 23 2 -0.132442473272 0.118898078701 -0.984033657023
-4.94475030899 -3.23894143105 12.6104764938 65 74 80 2 0.321440086992 0.233235789821 -0.917756687157
1.61779725552 2.82250523567 12.7442026138 119 118 114 2 -0.157836597213 -0.212578265954 -0.96431223648
-2.82679343224 0.223497420549 13.3825874329 156 156 157 2 0.170740752381 -0.016968920157 -0.985169859073
-2.63230681419 -1.72234559059 13.3959569931 15 24 35 2 0.155564260825 0.124432190938 -0.979957341221
-0.721256911755 -0.493264257908 11.8634328842 9 19 26 2 0.0195438157895 0.040465540475 -0.998989779376
1.71443164349 -1.87346661091 12.8628740311 141 144 145 2 -0.16557851558 0.14043790613 -0.976145967415
-1.455914855 -2.95147585869 13.0213327408 112 117 121 2 0.0717592900931 0.218283089222 -0.973243596046
-0.759234130383 -0.82044583559 12.2045021057 4 12 22 2 0.0220445521005 0.0658164295725 -0.997588209293
-0.759234130383 -0.82044583559 12.2045021057 4 12 22 2 0.0220445521005 0.0658164295725 -0.997588209293
-1.95286107063 1.1707149744 13.0395917892 114 119 122 2 0.110283209256 -0.088860513337 -0.989919907329
-1.95286107063 1.1707149744 13.0395917892 114 119 122 2 0.110283209256 -0.088860513337 -0.989919907329
-2.90451097488 1.04487645626 12.6872816086 94 107 112 2 0.184907114686 -0.0807026308334 -0.979436799551
-0.676766514778 2.61044192314 12.7676029205 82 83 83 2 0.0144241910311 -0.199446659735 -0.97980251716
-0.473779648542 -1.35018837452 12.7378950119 4 12 21 2 -0.00102670048549 0.103935235316 -0.994583537339
-0.159195154905 -1.93868732452 12.9967899323 34 41 53 2 -0.0247323076069 0.145754163592 -0.989011646421
-0.135688200593 -2.37396168709 13.017118454 140 142 146 2 -0.0263272370177 0.177407029205 -0.983785353916
-0.716067790985 -0.16071715951 11.758723259 121 123 128 2 0.0192963949363 0.0128164301908 -0.999731658126
0.0609050616622 -1.33199894428 12.3433914185 1 8 15 2 -0.0436780100936 0.105656942944 -0.993442923293
-0.288755327463 2.36996030807 12.2057437897 61 62 62 2 -0.0157893501293 -0.189772879505 -0.981701049519
-0.288755327463 2.36996030807 12.2057437897 61 62 62 2 -0.0157893501293 -0.189772879505 -0.981701049519
-2.4617395401 -1.50243532658 13.1402578354 24 33 40 2 0.146407677096 0.110900705466 -0.982988212348
-0.114338211715 2.18049669266 11.9494161606 61 74 79 2 -0.0303614589637 -0.178688846909 -0.983437073635
0.0306646507233 0.0169644095004 10.994758606 128 128 128 2 -0.0464874231905 -0.00230977276817 -0.998916204912
0.0422170013189 1.24707317352 12.112610817 61 68 72 2 -0.0429931145765 -0.102199283931 -0.99383444218
-0.315628439188 0.366879373789 11.6305503845 139 141 140 2 -0.0145559227472 -0.0319994027189 -0.99938189064
0.468749254942 2.66755509377 12.9097223282 135 135 135 2 -0.0716902104357 -0.200988262239 -0.976966853158
-3.14520931244 0.935744404793 12.6939477921 48 59 68 2 0.20262325528 -0.072096240598 -0.976599174949
-1.66776883602 -0.919693231583 12.52069664 16 26 35 2 0.092778926647 0.0716869885895 -0.993102737101
0.975625991821 -1.64204752445 12.4207363129 47 54 64 2 -0.114910567796 0.128511282236 -0.985028127389
-4.1383728981 1.39187300205 12.8561048508 138 140 143 2 0.269464152596 -0.103503896973 -0.957431989113
0.296249389648 -0.568193256855 11.2246294022 14 18 24 2 -0.0687680922413 0.0492340102051 -0.996417062142
0.296249389648 -0.568193256855 11.2246294022 14 18 24 2 -0.0687680922413 0.0492340102051 -0.996417062142
-2.42674803734 -1.15849757195 12.6903123856 137 143 148 2 0.149145882911 0.0885349205494 -0.984843679704
-0.647081673145 -2.64374160767 12.8154115677 121 124 123 2 0.0121159774414 0.199901757822 -0.979741032268
-3.04516029358 0.136197000742 13.4347047806 153 154 156 2 0.185472619887 -0.0105214619256 -0.982593103025
-0.559536337852 -2.45541024208 13.4390707016 135 140 143 2 0.00524835106786 0.177841774711 -0.984045099565
-3.5837726593 -0.847091436386 13.617395401 149 149 151 2 0.219555024115 0.0595155179308 -0.973783083911
-3.43754696846 0.835307717323 12.4032154083 49 58 67 2 0.228865929951 -0.0655662883818 -0.971247367016
-0.224734842777 1.82323849201 12.1543607712 88 95 101 2 -0.0211242137517 -0.147827049856 -0.988787606579
-1.6129502058 -1.66115117073 13.7321205139 25 36 46 2 0.0804512023696 0.118241124729 -0.989720486026
-1.58167994022 -0.632585048676 12.2539243698 16 26 35 2 0.0880258963316 0.0502424188858 -0.99485031081
-1.58167994022 -0.632585048676 12.2539243698 16 26 35 2 0.0880258963316 0.0502424188858 -0.99485031081
-0.309535115957 -1.6179844141 12.8606176376 10 19 27 2 -0.0135756071651 0.123217878445 -0.992286781793
-0.309535115957 -1.6179844141 12.8606176376 10 19 27 2 -0.0135756071651 0.123217878445 -0.992286781793
0.527527689934 -1.24965715408 11.864033699 1 6 12 2 -0.0839084303482 0.102817079875 -0.991154893749
-1.4762597084 -0.460460722446 12.2064819336 132 135 137 2 0.0799588075046 0.0365680243237 -0.996127185002
0.0407797656953 -2.22151994705 13.0155544281 121 130 137 2 -0.0396098138092 0.16624707625 -0.985288268624
-0.49842312932 2.355260849 12.2634315491 132 133 135 2 0.000908273326896 -0.187815745433 -0.982203859088
-2.6209731102 0.232201993465 13.3474884033 71 78 80 2 0.156498767995 -0.0176929270525 -0.987519668639
-3.29171848297 -0.211038902402 13.5018310547 147 148 150 2 0.201678823124 0.0145668388405 -0.979343381817
-0.663021504879 1.73083722591 12.7536840439 105 114 121 2 0.0135480572004 -0.134107104352 -0.990874227492
-3.72244763374 -1.1094545126 13.6909456253 31 40 47 2 0.227445189122 0.0774780768224 -0.970703782602
-0.751798629761 2.05107235909 12.244055748 122 130 136 2 0.0211270399257 -0.164561473178 -0.986140542585
1.01743900776 -1.31193888187 12.0420217514 10 18 26 2 -0.122088681231 0.10593335279 -0.986849775134
0.393928200006 -3.44762420654 13.1618928909 140 143 144 2 -0.0641104578879 0.250507952816 -0.965989448579
1.09456074238 -1.93150568008 12.9284286499 31 37 42 2 -0.119096876895 0.144978037674 -0.982240959493
1.09456074238 -1.93150568008 12.9284286499 31 37 42 2 -0.119096876895 0.144978037674 -0.982240959493
0.502333760262 -1.90673291683 12.7519540787 34 41 52 2 -0.0758404938145 0.145691035453 -0.986418948361
-1.22766375542 -1.21393620968 12.9171533585 18 28 38 2 0.0564838795368 0.0920509961839 -0.994150987252
-2.63804745674 1.07719016075 12.4925136566 120 124 130 2 0.167540903955 -0.0847043649116 -0.982219535576
-0.679022550583 1.53501081467 12.8892021179 90 97 102 2 0.0146545766367 -0.118009692895 -0.992904303428
-0.679022550583 1.53501081467 12.8892021179 90 97 102 2 0.0146545766367 -0.118009692895 -0.992904303428
-1.37712991238 1.73940455914 12.7405614853 127 134 136 2 0.068429986416 -0.134586202236 -0.988536236628
-1.2543541193 2.0439016819 12.3104734421 124 132 137 2 0.060803246626 -0.162883339775 -0.984770015193
-2.3886244297 -1.54934167862 13.3022069931 18 27 37 2 0.139394252762 0.113089759725 -0.983758074194
0.396413892508 1.76243555546 11.4202108383 118 123 127 2 -0.0754327522773 -0.151535785174 -0.985569280008
-0.623089253902 -2.6960337162 12.6750526428 135 139 142 2 0.0103998071432 0.20585367264 -0.97852752106
-2.81325531006 -0.653377950191 12.5045127869 121 129 133 2 0.181009384541 0.0502354577425 -0.9821975369
-0.682122409344 -1.13205575943 12.5241651535 3 11 20 2 0.0153717610375 0.0886293241741 -0.99594605871
-1.16549384594 -2.57385611534 13.5581970215 58 61 63 2 0.0486878268885 0.184373037789 -0.981649671955
-3.44894099236 0.763467907906 12.7216367722 132 137 137 2 0.224398105898 -0.0585855133819 -0.972734921595
-3.3049325943 0.732738316059 12.9035367966 67 76 85 2 0.211183018193 -0.0556454518481 -0.97586132033
-0.998589456081 -2.87549614906 12.4087867737 73 77 82 2 0.0397693821104 0.223225962266 -0.973955114991
-0.845863938332 -3.0194311142 12.4778957367 78 83 90 2 0.0276886153117 0.232714219095 -0.972150931087
-0.845863938332 -3.0194311142 12.4778957367 78 83 90 2 0.0276886153117 0.232714219095 -0.972150931087
-0.120004735887 -1.69983458519 12.7132196426 76 89 98 2 -0.028350835659 0.130805613169 -0.991002584094
1.45951485634 0.105301328003 12.9498519897 128 127 131 2 -0.147344721789 -0.0086392511908 -0.989047469184
1.45951485634 0.105301328003 12.9498519897 128 127 131 2 -0.147344721789 -0.0086392511908 -0.989047469184
-0.303228855133 1.75686347485 12.3117933273 105 112 118 2 -0.0146318712266 -0.140825547485 -0.989926297014
-1.71473312378 0.528805732727 13.3587999344 86 89 88 2 0.0906485839401 -0.0397437320593 -0.995089578878
1.57625365257 2.72436332703 12.6453266144 112 110 104 2 -0.156152537725 -0.207114997629 -0.965774177911
-2.25496721268 0.351063102484 13.3505945206 141 141 141 2 0.13010168118 -0.0265125529087 -0.991146122977
-2.25496721268 0.351063102484 13.3505945206 141 141 141 2 0.13010168118 -0.0265125529087 -0.991146122977
1.62604010105 2.74530625343 12.6455373764 108 107 102 2 -0.159770834116 -0.208506077202 -0.964882633451
0.361861169338 1.67595183849 11.5096759796 72 81 88 2 -0.0720346961981 -0.143242096977 -0.987062664777
-2.54297423363 1.44567477703 11.7404241562 156 157 159 2 0.169585949966 -0.120155145984 -0.97816325144
0.18516536057 -3.224132061 13.2475700378 147 149 150 2 -0.048860932977 0.233936153799 -0.971023421538
0.147840663791 -0.137894108891 10.9972047806 152 153 153 2 -0.0569715616725 0.0116247393406 -0.998308122072
-0.745532870293 1.75320732594 12.7042245865 101 110 116 2 0.0199691548644 -0.136300182886 -0.990466300789
-1.74105107784 -0.827619969845 12.4034786224 17 25 36 2 0.0994412753364 0.0650333095432 -0.992915958885
-2.99331092834 1.18801963329 12.1246671677 132 136 139 2 0.19963923386 -0.0954716439632 -0.975207332572
-0.801231443882 -3.86355400085 13.2075252533 113 122 131 2 0.0226243028495 0.278178969948 -0.960262777368
-1.59322023392 1.7139133215 12.6632881165 59 67 75 2 0.0854578641957 -0.133271452424 -0.987388309337
-1.59322023392 1.7139133215 12.6632881165 59 67 75 2 0.0854578641957 -0.133271452424 -0.987388309337
-0.486821591854 1.02146136761 12.6359786987 141 142 144 2 -1.32649750747e-005 -0.0806277625926 -0.996744282012
-3.50301241875 0.954254925251 12.3258657455 52 64 70 2 0.234881654474 -0.0751068826367 -0.969117931199
0.040226045996 -3.2026052475 13.0988941193 91 98 105 2 -0.0387656257969 0.235033333443 -0.971213961199
-1.27348434925 -1.6872074604 13.8084621429 5 13 23 2 0.0559679886799 0.119630402435 -0.991239704136
-2.87652826309 1.09084486961 12.5739326477 38 57 73 2 0.184350530824 -0.0849548381969 -0.979182085851
-4.30597162247 1.16914832592 12.9424877167 106 116 125 2 0.279615903134 -0.0863587498951 -0.956220222036
-4.30597162247 1.16914832592 12.9424877167 106 116 125 2 0.279615903134 -0.0863587498951 -0.956220222036
-2.87110757828 -0.618324100971 12.7001218796 97 103 111 2 0.18265631643 0.0467714737896 -0.98206369412
-1.61985683441 1.6789277792 12.6776580811 138 143 145 2 0.0874353522451 -0.13044490043 -0.987592622051
-1.65250813961 -0.652252912521 12.2416267395 42 52 62 2 0.0937570125848 0.0518462345457 -0.994244230838
0.991560339928 -1.45728969574 12.2217769623 7 13 20 2 -0.118168917897 0.115953371395 -0.986200244628
-0.755624115467 2.48149991035 12.5978403091 107 112 111 2 0.0207232424677 -0.192416425684 -0.981094524676
-0.755624115467 2.48149991035 12.5978403091 107 112 111 2 0.0207232424677 -0.192416425684 -0.981094524676
-5.22932910919 -3.23534226418 12.8114013672 156 158 159 2 0.335278866776 0.228413681984 -0.914010542268
-1.57739889622 -1.35386574268 13.223028183 20 30 39 2 0.0810460755284 0.100128021203 -0.991668247455
-1.57739889622 -1.35386574268 13.223028183 20 30 39 2 0.0810460755284 0.100128021203 -0.991668247455
-3.04139041901 -0.323321968317 13.0570688248 144 147 148 2 0.190283702569 0.0234677209004 -0.981448612314
-3.04139041901 -0.323321968317 13.0570688248 144 147 148 2 0.190283702569 0.0234677209004 -0.981448612314
-1.23975467682 -2.91717839241 12.6458969116 109 116 122 2 0.0573944773225 0.222114589955 -0.973329842809
-3.81768894196 1.4655739069 12.706404686 141 142 144 2 0.249833518342 -0.110742521784 -0.961935188556
-2.48963785172 -1.47001707554 13.0846033096 124 131 137 2 0.149074647948 0.10893169087 -0.982807527476
-0.364647001028 -0.0334793739021 11.2296695709 131 131 131 2 -0.0107505041304 0.00218768237178 -0.999939818542
-4.63869094849 1.36323332787 13.1911849976 114 124 133 2 0.296370968238 -0.0980665995312 -0.950024837171
-1.49514353275 -1.62160468102 13.6423425674 20 32 42 2 0.0725643565126 0.11626461644 -0.990563957111
-1.7896323204 -2.99130916595 13.4979753494 41 42 44 2 0.0930336314061 0.213327299723 -0.972541107933
-0.202005401254 -2.0225789547 13.068025589 70 83 92 2 -0.0213731175867 0.151154666475 -0.988279037847
0.504864275455 -3.48382973671 13.1669969559 12 16 17 2 -0.0720688573836 0.252748347135 -0.964844211682
-0.815670311451 -0.0507743358612 11.8566122055 129 130 133 2 0.0274486896184 0.00351765788768 -0.999617024425
-4.18474721909 0.225179746747 13.1810312271 130 136 139 2 0.267854684802 -0.0169669643076 -0.963309913762
-2.58547830582 0.813290476799 13.0620231628 90 103 112 2 0.156937243116 -0.0615616055385 -0.985688018821
-0.904797017574 -2.78718590736 12.7985982895 134 138 142 2 0.0315946511976 0.210485699577 -0.977086254273
-2.92559409142 -0.257093369961 13.0083684921 93 97 99 2 0.182620545051 0.018625753813 -0.983007028368
-1.14284515381 -0.401765942574 11.9733543396 144 147 147 2 0.0541392579873 0.0324929048359 -0.9980045851
-1.14284515381 -0.401765942574 11.9733543396 144 147 147 2 0.0541392579873 0.0324929048359 -0.9980045851
-1.82076239586 -3.21517252922 13.4462862015 16 20 25 2 0.0952409602893 0.229301061247 -0.968684769569
-3.93745970726 0.44479867816 12.8904104233 39 51 69 2 0.256241185431 -0.0337274369835 -0.966024282761
1.19340920448 1.47060906887 12.6528577805 122 123 125 2 -0.129615809733 -0.1142622455 -0.984958822043
-0.843750536442 -2.70702385902 12.9067430496 61 67 69 2 0.0267986562021 0.203068571338 -0.978797725457
-0.279851168394 -0.593881964684 11.670337677 12 17 24 2 -0.0175284695716 0.0496520416498 -0.998612751528
-1.77830529213 -1.80206763744 13.9404354095 11 20 29 2 0.0907283715326 0.12618113701 -0.987849524605
0.0112579260021 2.12921047211 11.8139448166 52 56 56 2 -0.0410549121142 -0.176489031803 -0.983446041145
-1.82001686096 -1.08850860596 12.7695951462 4 14 22 2 0.102525724181 0.0831720034555 -0.991247140587
-3.52408051491 2.28202199936 13.4318332672 147 147 147 2 0.215799621489 -0.162982110781 -0.96273950523
1.23886537552 1.60481119156 12.6396989822 140 141 143 2 -0.133029733163 -0.124541306835 -0.983256097355
-1.29185140133 -1.62420082092 13.6477165222 20 31 40 2 0.0579605102057 0.116516220353 -0.991496116811
-0.0982973501086 0.300240516663 11.2098798752 59 61 61 2 -0.0342449865522 -0.0272912670666 -0.999040773761
-0.383510828018 0.0296318288893 11.356013298 132 132 132 2 -0.00899148436478 -0.00334564920513 -0.999953978861
0.229153618217 -1.25406467915 12.0384626389 51 61 69 2 -0.058494220937 0.101895316163 -0.993073899899
0.229153618217 -1.25406467915 12.0384626389 51 61 69 2 -0.058494220937 0.101895316163 -0.993073899899
-3.60200357437 1.34127509594 12.3153305054 100 102 101 2 0.241683324386 -0.104897391532 -0.964668703734
-0.336846202612 -1.74823009968 13.0444583893 10 18 28 2 -0.0113188784351 0.131195581992 -0.991291885499
-3.39992403984 1.25884246826 11.9673576355 112 114 119 2 0.233100373914 -0.101591203687 -0.967131554141
-3.03923583031 1.21606826782 11.7444257736 89 92 94 2 0.209264614197 -0.10058381916 -0.972672204069
-1.26742827892 -0.906332612038 12.387714386 30 43 52 2 0.0621256310655 0.071561002546 -0.995499587584
0.94970536232 1.85512316227 12.0106077194 65 70 74 2 -0.116278400511 -0.15108983166 -0.981657372174
-0.00253554503433 -1.62102735043 12.5885686874 71 83 92 2 -0.0378002264112 0.125975141839 -0.991312971025
-1.50626862049 -1.0263864994 12.6482019424 7 16 26 2 0.0793350507417 0.0793288622177 -0.993686510597
-1.69748580456 2.15765833855 12.2219409943 136 139 141 2 0.0961663954184 -0.172363770513 -0.980327881378
-0.349837630987 -0.0969681814313 11.1933517456 114 118 121 2 -0.0120926304212 0.00781630937031 -0.999896331425
-1.22603917122 3.09022951126 13.7480192184 138 138 138 2 0.0519306621958 -0.218096237722 -0.974544630797
-1.27375614643 2.00928211212 12.3793039322 68 78 85 2 0.0620283956822 -0.15933432476 -0.985274099468
-1.92640924454 -3.03173041344 13.646900177 46 48 48 2 0.101594005334 0.213670474891 -0.97160876192
-1.46627879143 -3.9071996212 13.2866926193 26 32 38 2 0.0699555935694 0.278932781647 -0.957759217263
-0.406135052443 -1.40943717957 12.7747688293 2 8 18 2 -0.00624007959681 0.108163852261 -0.994113495769
-0.685934722424 1.89378333092 12.5080184937 111 120 125 2 0.0155782355147 -0.149196804445 -0.988684799176
-0.426968455315 -2.0771420002 13.2915077209 87 101 107 2 -0.00443875211135 0.152656692533 -0.988269311324
-4.62706136703 1.2433180809 13.2523622513 45 54 65 2 0.294626416091 -0.089217790799 -0.951438626894
-1.61357080936 -3.90394473076 13.3451290131 64 71 77 2 0.0801025147957 0.27738762703 -0.957413020328
-2.96940946579 1.09771454334 12.5341930389 42 50 56 2 0.191824389794 -0.0856235242073 -0.977687074468
-0.164686098695 -0.42092230916 11.2837209702 10 13 19 2 -0.0282075105618 0.0361772334667 -0.998947217888
-0.565386295319 -0.199280634522 11.5585737228 86 94 102 2 0.00673208656386 0.0163456466852 -0.999843737213
-2.23905301094 1.378698349 12.1844806671 142 142 142 2 0.140117554197 -0.111124376032 -0.983879283275
0.403439283371 2.49730658531 12.5963497162 71 71 71 2 -0.0685562332967 -0.193202249177 -0.978760917584
-4.09782791138 0.43289783597 12.856338501 118 123 129 2 0.267976691785 -0.0328211993255 -0.962866170106
0.702437222004 1.90333068371 11.6754045486 135 136 140 2 -0.0990460276738 -0.159501018076 -0.982216528895
0.702437222004 1.90333068371 11.6754045486 135 136 140 2 -0.0990460276738 -0.159501018076 -0.982216528895
-0.95398658514 -2.57365393639 13.32629776 102 107 111 2 0.0340849467478 0.18754638109 -0.98166418461
-0.410901010036 -2.53762054443 13.4204740524 119 123 129 2 -0.00554331746601 0.1838631956 -0.982936212038
-0.106779947877 -3.47205901146 12.8985509872 82 92 101 2 -0.0282361274341 0.257373568146 -0.965899356832
-0.106779947877 -3.47205901146 12.8985509872 82 92 101 2 -0.0282361274341 0.257373568146 -0.965899356832
-3.46950435638 -0.271616578102 13.4525222778 147 148 150 2 0.214621104192 0.0189423885574 -0.976513680166
-0.537570416927 1.91405272484 12.370932579 65 72 78 2 0.00400430789485 -0.152386876999 -0.988312807383
-0.537570416927 1.91405272484 12.370932579 65 72 78 2 0.00400430789485 -0.152386876999 -0.988312807383
-1.01138842106 -0.373356699944 11.8866853714 23 28 33 2 0.0436292274227 0.0303802896775 -0.998585764225
-3.20566082001 0.967762351036 12.4266767502 117 126 132 2 0.211187174373 -0.0759662455052 -0.974489151773
-0.744666755199 -3.0904955864 12.5817260742 148 152 157 2 0.0197010900363 0.236105667435 -0.971527653161
-0.311281889677 -2.31096768379 13.1845588684 35 44 51 2 -0.0130295070192 0.170754813794 -0.98522739787
0.716257035732 -1.83957803249 12.7396440506 26 31 35 2 -0.0922649028075 0.140577908165 -0.985761147259
-1.16589283943 -3.31541728973 12.6334142685 139 146 149 2 0.0514529620643 0.251030254495 -0.966610782075
-2.61319351196 0.748208999634 13.2183923721 142 146 150 2 0.157191918656 -0.0560384064378 -0.985976874837
0.199705407023 -1.74548077583 12.634147644 29 38 47 2 -0.0532873832247 0.134955263791 -0.989417774029
-1.31762170792 -1.42373287678 13.3160152435 29 39 50 2 0.0613653817239 0.104698381976 -0.9926089556
-1.31762170792 -1.42373287678 13.3160152435 29 39 50 2 0.0613653817239 0.104698381976 -0.9926089556
1.41012430191 -1.60046315193 12.4064540863 91 96 101 2 -0.14860660171 0.124868582847 -0.980981098159
-1.06561648846 -3.89803957939 13.141708374 140 143 143 2 0.0418149776009 0.281580748808 -0.958625990441
0.762858510017 -1.07468259335 11.6970920563 2 4 8 2 -0.10475666235 0.0895081990818 -0.990461672146
-2.4893758297 2.8053548336 13.1773061752 117 117 117 2 0.14576252383 -0.205132795525 -0.967819106469
-2.4893758297 2.8053548336 13.1773061752 117 117 117 2 0.14576252383 -0.205132795525 -0.967819106469
-3.31428647041 -1.79156959057 13.7258319855 35 49 59 2 0.198523363565 0.125348562851 -0.972047432953
1.72900021076 2.32196998596 12.2973423004 43 63 78 2 -0.172797300128 -0.181997502973 -0.967996901844
-3.24824404716 1.1409342289 11.7003297806 130 136 139 2 0.226486552747 -0.0944498239196 -0.96942409305
-1.12420642376 -3.14351987839 12.4917593002 137 144 149 2 0.0489687257532 0.241306036955 -0.969212804511
-0.441718637943 -0.24344240129 11.3472328186 13 20 26 2 -0.00392215313135 0.0205039773824 -0.999782078068
-1.4593629837 -1.30025088787 13.0487976074 22 34 43 2 0.0732932408308 0.09749632029 -0.9925334092
0.140204921365 1.96882629395 11.5138998032 40 47 54 2 -0.0530596827597 -0.167633178267 -0.984420533923
-0.487438052893 -0.408347934484 11.6088047028 4 8 15 2 5.67330743856e-005 0.0341151811617 -0.999417906181
1.55140304565 -1.55551147461 12.5254640579 137 140 142 2 -0.158033370395 0.120091161086 -0.980103855145
0.0744320005178 -1.72066986561 12.6498708725 25 34 42 2 -0.0435461830491 0.132963120443 -0.990163894789
0.0744320005178 -1.72066986561 12.6498708725 25 34 42 2 -0.0435461830491 0.132963120443 -0.990163894789
1.53595674038 -0.405735403299 13.0969676971 118 118 119 2 -0.151277824741 0.0297299856442 -0.9880441021
-1.88634991646 -1.11326360703 12.8476257324 20 30 40 2 0.106917340175 0.0845165882205 -0.990669283205
0.500848352909 2.04074120522 11.6016130447 148 149 151 2 -0.0827233510511 -0.17193865008 -0.981628212614
-0.785835802555 -2.7876303196 12.7156591415 132 135 141 2 0.022740798336 0.211870823917 -0.97703306498
1.68382668495 -1.45114576817 12.6261930466 148 151 151 2 -0.16690397778 0.111056360841 -0.979698702111
-0.67788875103 0.0754147991538 11.9181785583 41 42 46 2 0.0158695042024 -0.00699837725319 -0.999849579463
-0.661313474178 0.128623202443 11.9150495529 126 127 129 2 0.0144963027248 -0.0114280697671 -0.999829613699
-0.661313474178 0.128623202443 11.9150495529 126 127 129 2 0.0144963027248 -0.0114280697671 -0.999829613699
-1.08559262753 -2.75189757347 12.9659929276 48 53 54 2 0.0447187553416 0.205274323751 -0.977682302657
-4.13590574265 0.729905307293 12.8506250381 118 126 129 2 0.270446359003 -0.0548215880785 -0.961172908681
-4.13590574265 0.729905307293 12.8506250381 118 126 129 2 0.270446359003 -0.0548215880785 -0.961172908681
-0.249466836452 -0.698368728161 11.7905883789 7 14 20 2 -0.0198924283524 0.0578973842561 -0.998124333032
-0.749465107918 -0.528265476227 11.9242925644 1 5 12 2 0.0217803579148 0.0431619009496 -0.998830649467
