ply
format ascii 1.0
comment author: Caleb Adams & Jackson Parker
comment SSRL CV simple PLY writer
element vertex 1838
property float x
property float y
property float z
end_header
-0.0998841 6.29491 -6.86549
0.147707 6.2913 -6.81297
0.0665663 6.28853 -6.84554
-0.0582654 6.28068 -6.89429
-0.0645094 6.26055 -6.87943
0.149789 6.22402 -6.86714
0.264243 6.21456 -6.85764
0.141506 6.20415 -6.87631
0.141506 6.20415 -6.87631
0.0832352 6.20244 -6.89938
0.170626 6.197 -6.88167
0.170626 6.197 -6.88167
0.0624246 6.19393 -6.89964
0.205989 6.17942 -6.89546
0.0770202 6.15568 -6.9269
0.108209 6.15344 -6.91666
0.1228 6.13697 -6.93736
0.0707549 6.13493 -6.94768
0.318383 6.11413 -6.93715
0.318383 6.11413 -6.93715
-0.0187288 6.11218 -6.97453
0.106143 6.08716 -6.968
0.322583 6.08097 -6.96126
0.260133 6.07886 -6.96036
0.260133 6.07886 -6.96036
0.339221 6.0695 -6.95796
0.164437 6.06648 -6.98724
0.410016 6.04761 -6.96471
0.410016 6.04761 -6.96471
0.499077 6.6072 -6.62712
0.0124734 6.59572 -6.73839
0.228768 6.54094 -6.69583
-0.141452 6.52573 -6.83043
0.187175 6.47843 -6.724
0.187175 6.47843 -6.724
-0.145669 6.37552 -6.86957
-0.141516 6.31303 -6.89355
-0.0874056 6.26707 -6.89526
-0.0249697 6.24407 -6.89621
-0.11651 6.23819 -6.93224
-0.03746 6.20683 -6.92984
0.0291449 6.19424 -6.91899
0.0291449 6.19424 -6.91899
0.133193 6.18408 -6.93393
0.299649 6.15257 -6.9137
0.149834 6.13989 -6.92426
0.237283 6.09459 -6.97005
-0.024961 6.04446 -7.00197
-0.024961 6.04446 -7.00197
-0.129005 6.35471 -6.88109
-0.0208065 6.32548 -6.87793
-0.0208065 6.32548 -6.87793
0.116526 6.22726 -6.88016
-0.0291376 6.16114 -6.95673
0.26219 6.13572 -6.90898
0.137359 6.04403 -6.95789
0.391221 6.09408 -6.91991
0.391221 6.09408 -6.91991
-0.0582443 6.39453 -6.87323
0.16642 6.35978 -6.77307
0.16642 6.35978 -6.77307
0.32457 6.23944 -6.8318
0.482728 6.12714 -6.88365
0.357946 6.04826 -6.93925
0.299806 6.14783 -7.14655
0.26638 6.16157 -6.95419
-0.0249784 7.36984 -6.69128
-0.143548 7.32188 -6.77596
-0.0665517 7.31509 -6.74072
-0.114359 7.25052 -6.76071
-0.135248 7.22736 -6.76047
0.0561515 7.39871 -6.65892
0.0332651 7.39062 -6.6747
0.137261 7.35713 -6.66856
0.490694 7.27542 -6.5791
0.106079 7.26701 -6.67232
-0.10192 7.24505 -6.74796
0.438735 7.22209 -6.58974
-0.15393 7.18998 -6.77945
0.112305 7.37576 -6.666
-0.0124604 7.31334 -6.70018
-0.0124604 7.31334 -6.70018
0.436669 7.16399 -6.61987
0.440803 7.10085 -6.60159
0.183022 7.36567 -6.679
-0.049942 7.26017 -6.77316
-0.0832079 7.06882 -6.72914
0.478235 7.27042 -6.5916
0.465778 7.26226 -6.60416
0.45745 7.25798 -6.59839
0.112319 7.08296 -6.68713
-0.0831929 7.0178 -6.68694
-0.0832536 7.36011 -6.72888
-0.00829509 6.99159 -6.74525
-0.108171 7.14291 -6.77525
0.241217 7.06957 -6.62015
0.108116 7.00178 -6.58511
0.01663 7.19797 -6.80444
0.0166288 7.20216 -6.55779
-0.0166253 7.18627 -6.61282
0.0665606 6.8458 -6.78203
0.232933 6.81887 -6.65666
-0.262031 7.81523 -6.67712
-0.72792 7.68139 -6.72339
-0.301574 7.59959 -6.68134
-0.372276 7.57698 -6.71053
-0.715823 7.45608 -6.89391
-0.826018 7.44496 -6.86388
-0.241148 7.9772 -6.60727
-0.786102 7.84535 -6.65494
-0.332744 7.84205 -6.6638
-0.461686 7.83999 -6.67369
-0.461686 7.83999 -6.67369
-0.511648 7.8068 -6.69583
-0.490855 7.79414 -6.68903
-0.50955 7.79299 -6.68675
-0.203844 7.77672 -6.6814
-0.203713 7.75682 -6.68214
-0.715459 7.74605 -6.71072
-0.334776 7.74276 -6.67326
-0.74667 7.71667 -6.71413
-0.363959 7.70758 -6.6951
-0.183029 7.67605 -6.6747
-0.497073 7.66751 -6.69542
-0.497073 7.66751 -6.69542
-0.234998 7.64052 -6.68526
-0.538719 7.62838 -6.72997
-0.262049 7.62152 -6.67697
-0.484667 7.61824 -6.74625
-0.349417 7.57983 -6.6945
-0.361938 7.57902 -6.70682
-0.361938 7.57902 -6.70682
-0.509653 7.56213 -6.77122
-0.509653 7.56213 -6.77122
-0.728169 7.55215 -6.82196
-0.778098 7.54985 -6.80835
-0.615854 7.54734 -6.82837
-0.253753 7.53893 -6.68265
-0.5804 7.54094 -6.82158
-0.203771 7.52853 -6.68179
-0.282828 7.51832 -6.70508
-0.372332 7.46571 -6.7527
-0.834301 7.45491 -6.83687
-0.393197 7.45377 -6.79495
-0.815585 7.45079 -6.83928
-0.757424 7.43396 -6.8862
-0.266131 8.0403 -6.56863
-0.195448 8.0072 -6.58177
-0.195495 7.91547 -6.60265
-0.46794 7.87113 -6.65869
-0.232788 7.84201 -6.6557
-0.370164 7.8273 -6.65912
-0.713355 7.8261 -6.68033
-0.355637 7.81304 -6.67964
-0.492927 7.80787 -6.69826
-0.235137 7.80698 -6.68443
-0.328605 7.79645 -6.68784
-0.328605 7.79645 -6.68784
-0.355655 7.79418 -6.67957
-0.827705 7.78762 -6.64708
-0.160149 7.78191 -6.68001
-0.160149 7.78191 -6.68001
-0.721671 7.77991 -6.6745
-0.520009 7.69779 -6.68979
-0.490813 7.68559 -6.71053
-0.205894 7.68121 -6.66959
-0.262012 7.66971 -6.67722
-0.430518 7.66221 -6.68466
-0.430518 7.66221 -6.68466
-0.528296 7.65345 -6.72673
-0.794562 7.65317 -6.73369
-0.405607 7.64854 -6.68053
-0.272464 7.63627 -6.68028
-0.299471 7.62707 -6.6935
-0.299471 7.62707 -6.6935
-0.465895 7.62191 -6.71309
-0.303656 7.58513 -6.69046
-0.291176 7.57022 -6.67795
-0.759396 7.55825 -6.81064
-0.276609 7.55555 -6.67747
-0.301584 7.55078 -6.70247
-0.672002 7.54736 -6.83592
-0.597076 7.54281 -6.8098
-0.740631 7.53843 -6.81334
-0.293243 7.53479 -6.68716
-0.809286 7.53091 -6.81194
-0.326552 7.46695 -6.76337
-0.166389 7.44841 -6.70744
-0.166389 7.44841 -6.70744
-0.399444 7.44028 -6.80116
-0.307709 8.07049 -6.56097
-0.22455 8.02499 -6.58282
-0.191218 7.96825 -6.58507
-0.191218 7.96825 -6.58507
-0.26618 7.8399 -6.65306
-0.207987 7.8171 -6.65744
-0.802687 7.80121 -6.6436
-0.237085 7.79004 -6.67317
-0.827719 7.77037 -6.68298
-0.424386 7.7291 -6.67772
-0.445047 7.68945 -6.68527
-0.50333 7.6838 -6.72292
-0.357602 7.64952 -6.6682
-0.349522 7.64405 -6.71516
-0.203829 7.57876 -6.6815
-0.253777 7.56236 -6.70372
-0.332781 7.54557 -6.70601
-0.228838 7.53253 -6.6785
-0.724114 7.51595 -6.84555
-0.336997 7.51253 -6.74527
-0.336997 7.51253 -6.74527
-0.203819 7.50346 -6.68155
-0.203819 7.50346 -6.68155
-0.174672 7.4804 -6.68077
-0.274615 7.47073 -6.73143
-0.332833 7.44746 -6.72699
-0.441063 7.44683 -6.81471
-0.44941 7.4429 -6.82997
-0.237016 7.98129 -6.59546
-0.353559 7.89035 -6.67052
-0.341062 7.88587 -6.6581
-0.436705 7.81481 -6.66998
-0.436705 7.81481 -6.66998
-0.852633 7.81572 -6.64445
-0.524161 7.76056 -6.68692
-0.349404 7.7149 -6.69458
-0.403563 7.69627 -6.71361
-0.403563 7.69627 -6.71361
-0.711487 7.64466 -6.7765
-0.42843 7.62476 -6.69678
-0.58242 7.6254 -6.746
-0.674091 7.59488 -6.80238
-0.732305 7.5821 -6.79782
-0.732305 7.5821 -6.79782
-0.49093 7.57788 -6.77359
-0.436759 7.57568 -6.75465
-0.436759 7.57568 -6.75465
-0.852941 7.5693 -6.79218
-0.540856 7.55707 -6.78137
-0.682501 7.5017 -6.86006
-0.307859 7.48339 -6.74434
-0.307859 7.48339 -6.74434
-0.26209 7.46625 -6.7191
-0.703303 7.44372 -6.90286
-0.628374 7.43955 -6.89798
-0.295324 7.81946 -6.67511
-0.286931 8.03102 -6.57541
-0.174659 8.02112 -6.59621
-0.274476 7.89424 -6.64745
-0.536478 7.75918 -6.61537
-0.474189 7.7481 -6.68614
-0.773765 7.71063 -6.7269
-0.782224 7.61158 -6.80562
-0.653233 7.5868 -6.8172
-0.574223 7.49722 -6.83624
-0.574223 7.49722 -6.83624
-0.636755 7.46001 -6.87057
-0.499328 7.447 -6.83119
-0.499328 7.447 -6.83119
-0.507526 7.65264 -6.74097
-0.507526 7.65264 -6.74097
-0.441012 7.51021 -6.73006
-0.624065 7.72825 -6.75916
-0.482582 7.67769 -6.73697
-0.182974 8.12275 -6.54817
-0.390937 7.99416 -6.62367
-0.623962 7.80665 -6.69595
-0.415948 7.73969 -6.6842
-0.199698 7.77438 -6.72633
-0.29941 8.13403 -6.5455
-0.349297 8.15799 -6.54675
-0.318094 8.12876 -6.54323
-0.399176 8.18747 -6.5546
-0.369995 8.43602 -6.42683
-0.403233 8.37782 -6.44621
-0.812754 8.3574 -6.45685
-0.380479 8.22956 -6.51445
-0.376234 8.45392 -6.43306
-0.394931 8.4455 -6.43069
-0.394919 8.40784 -6.43079
-0.413604 8.39942 -6.42853
-0.413604 8.39942 -6.42853
-0.459362 8.39456 -6.45363
-0.459362 8.39456 -6.45363
-0.365864 8.38463 -6.47198
-0.823088 8.37379 -6.43925
-0.841797 8.37164 -6.43681
-0.841797 8.37164 -6.43681
-0.365866 8.35324 -6.47195
-0.442787 8.31989 -6.48605
-0.36177 8.19026 -6.53807
-0.36177 8.19026 -6.53807
-0.365919 8.15043 -6.53522
-0.540352 8.43562 -6.42282
-0.503045 8.413 -6.43367
-0.428018 8.38846 -6.45102
-0.428018 8.38846 -6.45102
-0.523752 8.384 -6.45552
-0.831466 8.34794 -6.45438
-0.511238 8.34679 -6.47101
-0.457297 8.26379 -6.50804
-0.806457 8.37673 -6.42964
-0.461457 8.25538 -6.50516
-0.324304 8.17871 -6.52849
-0.411542 8.39235 -6.44052
-0.798183 8.37099 -6.4565
-0.532135 8.35081 -6.4706
-0.478151 8.25812 -6.53574
0.191268 7.95042 -6.58551
0.170482 7.95027 -6.58586
-0.0145045 7.86069 -6.625
-0.0957493 7.71813 -6.67787
0.191339 7.63727 -6.64267
0.112308 7.56004 -6.66602
-0.153907 7.48063 -6.6949
0.180938 7.95064 -6.6039
-0.00620065 7.93789 -6.6096
-0.00619996 7.84657 -6.65182
-0.00619996 7.84657 -6.65182
0.091516 7.75562 -6.65167
0.091516 7.75562 -6.65167
0.239131 7.70521 -6.6291
0.347256 7.70384 -6.60466
-0.0354062 7.69474 -6.65227
-0.11229 7.6949 -6.66692
-0.11229 7.6949 -6.66692
-0.126889 7.69493 -6.66718
0.0436689 7.66661 -6.65025
-0.151817 7.66579 -6.68582
0.172615 7.65817 -6.64026
0.143527 7.64773 -6.64145
0.151727 7.6374 -6.6465
0.0436649 7.61841 -6.65027
0.18093 7.54937 -6.64594
0.14138 7.52852 -6.6501
0.0270173 8.11699 -6.55428
-0.0519872 7.96385 -6.59883
0.0145715 7.95136 -6.60268
-0.0852318 7.9514 -6.61174
0.0124684 7.92537 -6.61166
0.182987 7.92363 -6.61569
0.0561374 7.88163 -6.61668
0.434545 7.85674 -6.54475
0.44288 7.83866 -6.57779
0.44288 7.83866 -6.57779
-0.0436774 7.8245 -6.64685
-0.0727908 7.81209 -6.66245
0.158044 7.78277 -6.64067
-0.0624141 7.72866 -6.68004
0.164285 7.71395 -6.65553
0.363846 7.70562 -6.58017
-0.143523 7.70046 -6.69145
-0.0873418 7.69482 -6.66298
0.0311763 7.6794 -6.6627
0.0727715 7.6739 -6.64919
-0.1435 7.65191 -6.67047
-0.126864 7.64046 -6.66731
-0.126864 7.64046 -6.66731
-0.106059 7.63863 -6.68173
0.130988 7.63116 -6.65355
0.0790207 7.6145 -6.66409
0.0124767 7.59362 -6.67506
0.153855 7.56806 -6.6376
0.00624855 7.55356 -6.66023
-0.0249577 7.54535 -6.6703
-0.116457 7.53254 -6.66396
0.0187191 7.51432 -6.68993
0.116453 7.96753 -6.61195
0.14141 7.94403 -6.58707
0.183032 7.76944 -6.65799
0.232896 7.76247 -6.61435
0.232896 7.76247 -6.61435
-0.120687 7.71222 -6.63954
-0.0166132 7.69169 -6.65508
0.141311 7.68733 -6.62868
0.00855607 7.66889 -6.67346
0.407522 7.64906 -6.5787
-0.0623867 7.62915 -6.68025
0.27861 7.6207 -6.6456
0.112309 7.61661 -6.66602
0.112309 7.61661 -6.66602
-0.0125195 7.57059 -6.6787
0.0456709 7.5094 -6.64076
-0.0499509 7.44916 -6.67397
0.220392 7.98559 -6.56352
-0.141449 7.96908 -6.60422
-0.141449 7.96908 -6.60422
-0.0125053 7.88988 -6.61543
0.158037 7.87346 -6.61957
0.00415099 7.84022 -6.64815
0.2537 7.81853 -6.58667
0.2537 7.81853 -6.58667
0.14557 7.80461 -6.63208
0.35349 7.72674 -6.59834
0.00833275 7.71464 -6.65114
0.103983 7.67515 -6.66025
0.103983 7.67515 -6.66025
0.407531 7.6407 -6.57877
0.282813 7.54313 -6.63402
0.0207896 7.53718 -6.68074
0.0207896 7.53718 -6.68074
0.0998003 7.52008 -6.65724
-0.137286 7.45306 -6.67053
0.291092 7.93992 -6.57648
-0.0790181 7.89829 -6.62648
0.357615 7.88957 -6.56541
0.0290689 7.77337 -6.65048
0.0290689 7.77337 -6.65048
-0.0624073 7.57932 -6.70123
-0.145623 7.56204 -6.67934
-0.145623 7.56204 -6.67934
0.29112 7.53866 -6.61864
0.0998131 7.51178 -6.65732
0.241218 7.45309 -6.64111
0.0748649 7.78985 -6.64014
0.316061 7.77272 -6.5937
0.316061 7.77272 -6.5937
-0.141486 7.64288 -6.62518
0.324375 7.60953 -6.59947
-0.0582429 7.52622 -6.6619
-0.0582429 7.52622 -6.6619
-0.124752 8.08567 -6.57376
-0.124752 8.08567 -6.57376
-0.0832123 7.83203 -6.66566
0.133353 7.4685 -6.68825
0.453199 7.92742 -6.51117
0.515545 7.93422 -6.47621
0.278566 8.08088 -6.50459
0.36592 7.56225 -6.52899
0.36592 7.56225 -6.52899
0.00414791 8.19407 -6.54259
0.0540285 8.27437 -6.52014
-0.110187 8.19684 -6.5311
-0.0977162 8.17504 -6.53972
-0.0831066 8.3599 -6.46152
-0.124739 8.26447 -6.51047
-0.00832342 8.1876 -6.53406
-0.00832342 8.1876 -6.53406
-0.0416106 8.15415 -6.532
-0.0416106 8.15415 -6.532
-0.0832225 8.40964 -6.43976
-0.0832225 8.40964 -6.43976
0.498833 8.3666 -6.43712
0.498833 8.3666 -6.43712
-0.120557 8.33272 -6.47127
0.0207582 8.23563 -6.51817
0.423997 8.15918 -6.42775
0.423987 8.38061 -6.40668
0.378327 8.29604 -6.47432
0.448949 8.24492 -6.42392
0.448949 8.24492 -6.42392
0.324279 8.23724 -6.47284
0.0291142 8.22735 -6.5242
-0.0332333 8.31415 -6.4749
0.282697 8.24335 -6.46523
-7.95914 1.6556 -1.84019
-7.95914 1.6556 -1.84019
-5.59482 2.3599 1.88982
-4.39261 3.35433 6.94865
-1.99012 2.41875 5.51697
-4.84606 7.45343 5.86337
-7.57992 6.60713 12.1255
-1.11235 1.35417 17.5553
-4.52399 6.80979 18.4718
-7.33228 4.28447 29.5804
-3.47516 3.18401 20.9935
-1.9378 5.24398 24.6196
0.00516278 4.33174 30.0826
-7.51164 2.86726 34.5684
-6.93096 6.96788 33.7086
-6.80487 6.57671 36.8484
-6.83175 6.56651 37.0017
-6.8586 6.55631 37.1548
-1.07776 4.56429 35.0559
-1.1623 5.32615 37.1489
-3.6335 7.19587 30.7278
-0.955932 7.16859 35.4421
-7.04198 2.12994 48.8454
-3.77825 2.35021 41.7928
-3.92818 2.25655 42.7451
-3.50434 2.02574 42.7326
-2.61496 1.57728 46.2616
-1.96482 5.83331 42.2407
-1.74812 5.89753 45.3287
-3.11665 1.90512 49.4007
-1.80835 5.29768 51.9569
-4.02324 3.07542 52.8283
-6.90307 3.00968 67.2565
-6.16981 1.45876 67.5573
-6.76092 3.37505 65.3725
-6.72826 5.95406 66.1768
8.11483 -2.24003 -99.6498
2.24243 -2.97679 -56.9197
1.47697 -4.2569 -50.1092
5.96435 -6.26135 -36.9456
1.26824 -3.58861 -40.203
5.0975 -7.00693 -30.6468
6.36359 -7.41923 -34.3214
8.54499 -5.48356 -35.2243
1.47038 -7.46255 -22.8322
1.23093 -6.78457 -21.2064
5.12423 -5.28846 -18.6219
4.07572 -4.36834 -22.6648
5.4673 -3.84769 -23.3725
7.79831 -6.34032 -21.2734
1.50478 -5.34982 -9.58995
1.02387 -7.86601 -5.27837
1.02387 -7.86601 -5.27837
0.974152 -7.86487 -5.28012
0.88503 -7.86593 -5.28621
0.88503 -7.86593 -5.28621
0.895305 -7.94357 -5.24707
0.750268 -7.94355 -5.261
0.729555 -7.95411 -5.26779
0.916001 -7.96053 -5.26091
1.21036 -8.01336 -5.2715
1.12129 -8.01336 -5.27789
1.04462 -8.18946 -5.27182
0.700494 -8.18871 -5.26242
0.760603 -8.27604 -5.23677
0.58235 -8.35319 -5.2485
0.868317 -8.36375 -5.23274
0.54302 -8.37428 -5.26779
0.866353 -7.86585 -5.2838
0.748206 -7.86649 -5.27002
0.7316 -7.86625 -5.25867
0.847746 -7.8752 -5.28177
0.719194 -7.875 -5.28575
0.789656 -7.88437 -5.27745
1.17928 -7.89521 -5.261
0.897416 -7.90309 -5.25903
0.671516 -7.9042 -5.28447
0.868455 -7.90637 -5.27501
0.806258 -7.91591 -5.28882
0.837273 -7.92184 -5.26376
0.824891 -7.92103 -5.27638
0.719233 -7.92304 -5.28592
1.1897 -7.92687 -5.27852
1.1897 -7.92687 -5.27852
0.94506 -7.92606 -5.26009
0.630087 -7.93133 -5.29178
0.630087 -7.93133 -5.29178
1.03424 -7.93485 -5.27507
0.756487 -7.93338 -5.2756
0.727492 -7.9334 -5.27679
0.727492 -7.9334 -5.27679
0.963764 -7.93592 -5.28337
1.13159 -7.94334 -5.27422
0.781346 -7.94272 -5.2717
0.669443 -7.94154 -5.27264
0.992749 -7.94411 -5.26752
0.858048 -7.94404 -5.27811
0.820742 -7.95438 -5.27351
0.756491 -7.95427 -5.27563
0.661133 -7.95291 -5.26688
1.00513 -7.96476 -5.25491
1.00513 -7.96476 -5.25491
0.708763 -7.97277 -5.26794
1.0114 -7.9838 -5.26974
0.976184 -7.98996 -5.27097
0.826989 -7.99183 -5.26756
0.659087 -7.99065 -5.27605
0.93676 -7.99275 -5.25444
0.974134 -8.00475 -5.28004
0.719171 -8.00545 -5.2856
0.924359 -8.00761 -5.26691
0.866263 -8.01261 -5.26254
0.963773 -8.01525 -5.2834
1.22904 -8.02383 -5.27393
0.731583 -8.02174 -5.25853
0.621802 -8.02159 -5.2654
0.702605 -8.03344 -5.27444
0.592744 -8.03414 -5.26617
0.955399 -8.05541 -5.25661
0.58239 -8.07806 -5.26959
0.752334 -8.08049 -5.27274
0.967865 -8.09107 -5.26523
1.13159 -8.10263 -5.2536
0.739891 -8.10122 -5.26425
0.700523 -8.09998 -5.26256
0.926397 -8.1097 -5.25772
0.592742 -8.11973 -5.2662
0.974058 -8.12228 -5.25894
0.580316 -8.12896 -5.25777
0.640425 -8.13632 -5.25288
0.837303 -8.13892 -5.26393
0.855918 -8.14691 -5.2453
0.826889 -8.14691 -5.24626
0.936795 -8.15037 -5.25461
0.808262 -8.16267 -5.25871
0.754397 -8.16695 -5.26375
0.783402 -8.16901 -5.2626
0.783402 -8.16901 -5.2626
0.642405 -8.16852 -5.24338
0.611379 -8.16881 -5.26839
0.994782 -8.17772 -5.25829
0.650735 -8.17904 -5.24922
1.00515 -8.19018 -5.25502
0.799979 -8.19116 -5.27388
0.748152 -8.19065 -5.24895
0.855963 -8.19843 -5.26624
0.839348 -8.20555 -5.25482
0.814503 -8.20562 -5.25885
1.03203 -8.20766 -5.24185
1.01965 -8.20687 -5.25443
0.82687 -8.20638 -5.24615
0.78134 -8.20679 -5.27164
0.632124 -8.20836 -5.26176
0.797899 -8.21075 -5.26204
0.768935 -8.21077 -5.26338
0.992707 -8.21297 -5.24657
0.721221 -8.22133 -5.27649
1.03414 -8.22564 -5.2538
0.551316 -8.22725 -5.27348
0.580269 -8.23542 -5.25751
1.04451 -8.24542 -5.25056
0.719193 -8.24823 -5.26497
0.748122 -8.25223 -5.24881
0.748122 -8.25223 -5.24881
0.688055 -8.25635 -5.25395
0.7834 -8.26606 -5.26257
1.03414 -8.27579 -5.2538
0.789657 -8.27788 -5.2774
0.659043 -8.27726 -5.25502
0.659043 -8.27726 -5.25502
0.806167 -8.28562 -5.2468
0.557495 -8.2844 -5.25247
0.557495 -8.2844 -5.25247
0.563701 -8.29681 -5.24626
0.936775 -8.31422 -5.25455
0.826892 -8.3139 -5.24626
1.05282 -8.31752 -5.25627
0.543044 -8.31792 -5.26791
0.737741 -8.33163 -5.25209
1.11289 -8.33323 -5.25104
0.698381 -8.33666 -5.25043
0.698381 -8.33666 -5.25043
1.07758 -8.34297 -5.21651
1.06313 -8.34448 -5.23804
1.06313 -8.34448 -5.23804
0.7378 -8.35353 -5.2524
1.12326 -8.35614 -5.24776
1.08179 -8.35597 -5.24033
0.887052 -8.36525 -5.25624
0.758533 -8.36383 -5.24577
0.828966 -8.38302 -5.25806
0.806195 -8.38472 -5.24696
0.994734 -8.39336 -5.2374
0.727403 -8.39386 -5.23476
0.57199 -8.39391 -5.25188
1.10251 -8.4122 -5.23361
0.897302 -8.42452 -5.23766
0.808254 -8.42658 -5.24403
0.884961 -8.43118 -5.26508
0.76889 -8.42951 -5.24237
1.12122 -8.43357 -5.25682
0.797919 -8.44141 -5.26215
1.13158 -8.44396 -5.25351
0.67151 -8.44232 -5.26366
0.569976 -7.86643 -5.28206
0.949256 -7.87018 -5.28391
0.949256 -7.87018 -5.28391
1.05078 -7.88665 -5.26534
1.05078 -7.88665 -5.26534
0.808313 -7.88546 -5.27972
0.808313 -7.88546 -5.27972
0.909852 -7.89595 -5.26744
0.592772 -7.89888 -5.28709
0.963758 -7.91609 -5.28336
0.768943 -7.91477 -5.28418
0.702603 -7.91444 -5.27444
1.02175 -7.92112 -5.26634
0.812432 -7.924 -5.26778
0.940929 -7.94585 -5.25739
0.715057 -7.94801 -5.28296
0.963784 -7.95371 -5.28351
0.990656 -7.96371 -5.25568
0.611397 -7.96219 -5.26849
0.611397 -7.96219 -5.26849
0.878767 -7.96477 -5.27135
1.19791 -7.96832 -5.26305
1.19791 -7.96832 -5.26305
1.12952 -7.9713 -5.26251
0.961674 -7.97013 -5.2715
0.961674 -7.97013 -5.2715
0.594829 -7.97385 -5.27802
0.594829 -7.97385 -5.27802
0.945119 -7.97657 -5.28111
0.540962 -7.97932 -5.29771
0.880864 -7.98378 -5.28323
0.880864 -7.98378 -5.28323
0.74614 -7.9846 -5.27902
0.994787 -7.98982 -5.25839
1.02592 -7.99215 -5.2693
0.839383 -7.99199 -5.27576
0.963777 -7.99647 -5.28343
0.679809 -7.99576 -5.26933
0.889161 -8.0006 -5.28891
0.889161 -8.0006 -5.28891
1.01345 -8.00345 -5.26067
0.648727 -8.00326 -5.27936
0.706756 -8.01888 -5.2773
0.768904 -8.01978 -5.26318
0.768904 -8.01978 -5.26318
1.04245 -8.02431 -5.25952
0.671498 -8.03009 -5.26355
1.00516 -8.03779 -5.25513
0.644535 -8.03722 -5.25555
0.793763 -8.04371 -5.25929
0.673596 -8.04701 -5.2755
0.974128 -8.06216 -5.28001
0.667337 -8.06342 -5.26067
0.675645 -8.07395 -5.26636
0.972022 -8.07862 -5.2681
0.704664 -8.07812 -5.26538
0.704664 -8.07812 -5.26538
0.661117 -8.08441 -5.2668
0.609351 -8.08448 -5.27762
1.18961 -8.09659 -5.25745
1.18961 -8.09659 -5.25745
0.565801 -8.09765 -5.25822
1.10466 -8.10392 -5.2664
0.945051 -8.10559 -5.26006
0.882905 -8.11199 -5.27415
0.715008 -8.11249 -5.26187
0.549243 -8.11469 -5.28247
0.567854 -8.11729 -5.2491
0.764741 -8.12618 -5.2603
0.781342 -8.12745 -5.27162
0.945057 -8.13585 -5.26006
0.752305 -8.14062 -5.25186
0.752305 -8.14062 -5.25186
0.775152 -8.14428 -5.27798
0.615554 -8.15427 -5.27138
0.663203 -8.16459 -5.25789
1.18961 -8.1686 -5.2574
1.14818 -8.1707 -5.2648
1.12332 -8.17077 -5.26877
1.16265 -8.18723 -5.24945
0.839349 -8.18988 -5.25481
0.677726 -8.19006 -5.27824
1.15018 -8.20376 -5.24088
0.603103 -8.20212 -5.26277
0.884965 -8.20469 -5.26511
0.843507 -8.22125 -5.25772
0.636281 -8.22929 -5.26469
0.802057 -8.23587 -5.26492
0.702559 -8.23442 -5.25337
1.11495 -8.26626 -5.24208
1.18755 -8.269 -5.26645
0.551314 -8.27002 -5.27345
0.851801 -8.27354 -5.26337
0.88285 -8.27961 -5.2531
0.613471 -8.27823 -5.25948
0.613471 -8.27823 -5.25948
1.05493 -8.28229 -5.26817
1.03 -8.28823 -5.25104
1.21447 -8.29273 -5.25348
0.843491 -8.29222 -5.25763
0.648651 -8.29151 -5.23741
1.05698 -8.30507 -5.25917
0.619658 -8.30315 -5.25314
1.09426 -8.30919 -5.24893
0.845566 -8.31292 -5.2487
0.808241 -8.3149 -5.24403
0.555421 -8.31333 -5.24065
0.974073 -8.31745 -5.25902
0.781304 -8.31594 -5.2507
0.723289 -8.32223 -5.25288
0.911888 -8.32683 -5.25829
1.01136 -8.32992 -5.24889
0.781298 -8.33681 -5.25067
0.540915 -8.33749 -5.25575
0.895274 -8.35163 -5.24686
0.826898 -8.35147 -5.24629
1.03622 -8.35592 -5.24493
1.05281 -8.36242 -5.25621
1.01966 -8.36238 -5.2545
1.01966 -8.36238 -5.2545
0.677689 -8.36602 -5.25725
0.555437 -8.36594 -5.2616
0.555437 -8.36594 -5.2616
0.926394 -8.38317 -5.25775
1.11291 -8.38648 -5.25117
0.563724 -8.38485 -5.2672
0.80207 -8.41017 -5.265
1.15018 -8.41668 -5.24091
0.78546 -8.4214 -5.25357
0.78546 -8.4214 -5.25357
0.619668 -8.42108 -5.25322
1.10045 -8.42491 -5.24263
0.822781 -8.42656 -5.24364
0.536822 -8.42596 -5.29489
0.743994 -8.42958 -5.24606
0.743994 -8.42958 -5.24606
0.688057 -8.43066 -5.25394
0.71707 -8.43167 -5.25285
0.870507 -7.88889 -5.28665
0.870507 -7.88889 -5.28665
1.06116 -7.97472 -5.28278
0.911819 -8.09055 -5.23718
0.916084 -8.12861 -5.26135
0.903543 -8.16762 -5.2316
0.696363 -8.22203 -5.25964
0.696363 -8.22203 -5.25964
0.916033 -8.24965 -5.26114
0.762688 -8.2725 -5.26933
0.592727 -8.29884 -5.24529
0.741956 -8.30141 -5.25526
0.72123 -8.43487 -5.25578
0.899497 -7.93881 -5.27083
0.899497 -7.93881 -5.27083
0.601005 -8.06516 -5.25085
0.94507 -8.20578 -5.26015
0.878718 -8.22631 -5.25034
0.994797 -8.27268 -5.25838
1.12741 -8.37289 -5.25061
0.783399 -7.91956 -5.26263
0.953317 -8.20547 -5.24481
0.547185 -8.3518 -5.2915
0.741943 -8.37655 -5.2552
1.26843 -8.09291 -5.27556
1.36787 -8.15133 -5.26588
1.87022 -7.87361 -5.43561
1.5007 -7.87069 -5.32076
1.5007 -7.87069 -5.32076
1.38652 -7.8758 -5.26808
1.40109 -7.87829 -5.28844
1.86194 -7.88414 -5.44476
1.3575 -7.87895 -5.2691
1.30779 -7.89033 -5.27103
1.43422 -7.8959 -5.2753
1.43422 -7.8959 -5.2753
1.60223 -7.90935 -5.30794
1.37827 -7.90846 -5.28334
1.66239 -7.91268 -5.31763
1.46321 -7.91676 -5.27412
1.40733 -7.92517 -5.28242
1.33676 -7.9246 -5.25511
1.6997 -7.93707 -5.32797
1.40729 -7.93765 -5.2822
1.72047 -7.94841 -5.32159
1.69971 -7.95165 -5.32803
1.60418 -7.98604 -5.27791
1.69965 -8.00346 -5.30722
1.52333 -8.00243 -5.26904
1.41761 -8.00844 -5.2641
1.56269 -8.02738 -5.26456
1.56269 -8.02738 -5.26456
1.24143 -8.04057 -5.26746
1.27879 -8.04273 -5.27222
1.43415 -8.06357 -5.25436
1.27877 -8.07615 -5.27213
1.29534 -8.09058 -5.26263
1.80956 -8.09459 -5.31503
1.32022 -8.09927 -5.27939
1.68072 -8.11073 -5.24197
1.80952 -8.11651 -5.31487
1.31602 -8.11235 -5.25571
1.59164 -8.12846 -5.24844
1.59381 -8.15166 -5.26065
1.82822 -8.15936 -5.31725
1.60408 -8.1568 -5.25674
1.29742 -8.15864 -5.27431
1.32843 -8.16979 -5.2493
1.9175 -8.17483 -5.3526
1.90704 -8.18495 -5.33495
1.35744 -8.25849 -5.24821
1.82822 -8.26379 -5.31728
1.77831 -8.26414 -5.28322
1.42788 -8.35766 -5.23964
1.4154 -8.36577 -5.23103
1.39889 -8.40373 -5.25548
1.38649 -8.40564 -5.24734
1.27872 -8.41602 -5.25125
1.32631 -8.42734 -5.23737
1.35732 -8.43548 -5.22697
1.34705 -8.44182 -5.23076
1.28279 -8.44485 -5.23302
1.32421 -8.45215 -5.22552
1.74768 -7.87043 -5.39226
1.78293 -7.87473 -5.39101
1.53589 -7.87773 -5.29861
1.7622 -7.88296 -5.39174
1.55461 -7.88234 -5.32172
1.343 -7.88209 -5.26973
1.77052 -7.90292 -5.39745
1.45287 -7.90222 -5.27757
1.50467 -7.91259 -5.26674
1.74344 -7.92218 -5.36844
1.61462 -7.9227 -5.29555
1.61462 -7.9227 -5.29555
1.52341 -7.92975 -5.29004
1.45077 -7.93538 -5.2657
1.60214 -7.93819 -5.28691
1.60214 -7.93819 -5.28691
1.65823 -7.94814 -5.31485
1.56064 -7.95762 -5.27356
1.40315 -7.96266 -5.27946
1.40315 -7.96266 -5.27946
1.44457 -7.97831 -5.27196
1.45908 -7.99188 -5.27139
1.68505 -7.99679 -5.28673
1.89487 -8.0012 -5.38953
1.53987 -8.00014 -5.25945
1.25596 -8.00612 -5.267
1.4052 -8.01468 -5.27042
1.60826 -8.02326 -5.25974
1.5503 -8.0224 -5.27701
1.86363 -8.02772 -5.35783
1.39069 -8.02408 -5.27094
1.31194 -8.03861 -5.27385
1.31194 -8.03861 -5.27385
1.40731 -8.04101 -5.28232
1.64143 -8.04417 -5.26151
1.258 -8.04664 -5.25795
1.52332 -8.06191 -5.26897
1.66835 -8.064 -5.2545
1.66835 -8.064 -5.2545
1.29327 -8.07091 -5.27155
1.53579 -8.08505 -5.27754
1.53579 -8.08505 -5.27754
1.79494 -8.11611 -5.29456
1.79494 -8.11611 -5.29456
1.77843 -8.1184 -5.30432
1.56057 -8.12318 -5.25267
1.56057 -8.12318 -5.25267
1.6725 -8.12461 -5.25732
1.6725 -8.12461 -5.25732
1.4155 -8.12406 -5.25217
1.89255 -8.13065 -5.33565
1.50466 -8.12867 -5.26677
1.50466 -8.12867 -5.26677
1.29745 -8.13256 -5.27455
1.34711 -8.1333 -5.25169
1.78662 -8.14209 -5.28877
1.42584 -8.1407 -5.24872
1.42584 -8.1407 -5.24872
1.64142 -8.14959 -5.26144
1.33463 -8.15191 -5.24313
1.49628 -8.1866 -5.24017
1.29533 -8.18764 -5.26254
1.29533 -8.18764 -5.26254
1.56057 -8.19729 -5.25258
1.88838 -8.21622 -5.33281
1.74308 -8.21702 -5.28455
1.87166 -8.24374 -5.30048
1.57091 -8.25568 -5.24916
1.79496 -8.26017 -5.2946
1.79496 -8.26017 -5.2946
1.65585 -8.25982 -5.23994
1.65585 -8.25982 -5.23994
1.67029 -8.27845 -5.22446
1.63303 -8.28476 -5.23485
1.36364 -8.28654 -5.24199
1.36364 -8.28654 -5.24199
1.71398 -8.29073 -5.26468
1.84255 -8.30806 -5.28065
1.33252 -8.30824 -5.2312
1.3823 -8.31372 -5.24426
1.35329 -8.32209 -5.24536
1.31801 -8.32599 -5.23174
1.72432 -8.34496 -5.26126
1.80528 -8.34989 -5.29106
1.40295 -8.34997 -5.22258
1.32836 -8.34994 -5.22838
1.74714 -8.3555 -5.26636
1.45068 -8.35354 -5.24466
1.4963 -8.35569 -5.24019
1.4963 -8.35569 -5.24019
1.51281 -8.35863 -5.23041
1.2704 -8.35743 -5.2455
1.38856 -8.3589 -5.25894
1.38856 -8.3589 -5.25894
1.45485 -8.37137 -5.24763
1.53351 -8.37414 -5.22363
1.28279 -8.38013 -5.23296
1.70558 -8.39458 -5.23807
1.36154 -8.39276 -5.23012
1.24758 -8.40326 -5.24034
1.59775 -8.4139 -5.22124
1.57917 -8.42057 -5.23991
1.66817 -8.42222 -5.21251
1.41329 -8.424 -5.21912
1.39059 -8.42658 -5.24988
1.59156 -8.43909 -5.22748
1.75784 -7.94576 -5.3468
1.49225 -8.01069 -5.27313
1.55854 -8.05237 -5.26173
1.41753 -8.08109 -5.24306
1.53367 -8.11927 -5.26564
1.56682 -8.17149 -5.26724
1.69114 -8.23011 -5.25945
1.48798 -8.26702 -5.24913
1.50448 -8.30005 -5.22464
1.68273 -8.32978 -5.23276
1.47555 -8.33989 -5.24078
1.35531 -8.35847 -5.23624
1.76992 -8.38049 -5.25665
1.75334 -8.40784 -5.26602
1.4757 -7.87727 -5.2827
1.43838 -7.91059 -5.2782
1.59986 -7.98931 -5.23312
1.59986 -7.98931 -5.23312
1.71601 -8.18824 -5.25558
1.80739 -8.21858 -5.30284
1.40942 -7.99845 -5.29425
1.55022 -8.05433 -5.25594
1.6041 -8.13384 -5.25691
1.67453 -8.23403 -5.24823
1.81147 -8.31427 -5.28484
1.61647 -8.32146 -5.24432
1.33463 -7.95361 -5.24315
1.34308 -7.96284 -5.29063
2.45176 -7.90831 -5.61549
2.57602 -7.99123 -5.56577
2.57602 -7.99123 -5.56577
2.34141 -8.26368 -5.52467
2.03566 -8.33386 -5.35097
2.01501 -8.33414 -5.37265
2.01501 -8.33414 -5.37265
2.10509 -7.86476 -5.55504
2.03026 -7.86914 -5.51909
2.2339 -7.87387 -5.58614
1.94925 -7.87677 -5.48943
2.36057 -7.89133 -5.6109
2.35222 -7.90272 -5.60513
1.97605 -7.91608 -5.46121
2.60486 -7.9239 -5.54321
1.99688 -7.92678 -5.47548
2.3522 -7.93722 -5.60504
2.0842 -7.93618 -5.51999
2.58625 -7.94266 -5.54138
2.57588 -7.95152 -5.56503
2.25032 -7.95816 -5.5612
2.54492 -7.97026 -5.57008
2.48919 -7.97214 -5.62036
2.49731 -7.98423 -5.5899
2.10481 -8.02338 -5.49228
2.45186 -8.04103 -5.61604
2.42698 -8.04006 -5.62003
2.19402 -8.04678 -5.50648
2.19402 -8.04678 -5.50648
2.43938 -8.09102 -5.60765
2.11502 -8.09182 -5.46771
2.29375 -8.09456 -5.53842
2.00691 -8.09153 -5.40901
2.58636 -8.10815 -5.56229
2.26464 -8.11611 -5.51878
2.48085 -8.12042 -5.61465
2.45786 -8.11884 -5.58842
2.16478 -8.1149 -5.46562
2.44756 -8.13042 -5.59215
2.19189 -8.13114 -5.49458
2.23131 -8.13237 -5.49596
2.50762 -8.14926 -5.58629
2.26458 -8.15373 -5.51854
2.56988 -8.16076 -5.58682
2.56359 -8.19077 -5.57231
2.60917 -8.19605 -5.56714
2.60917 -8.19605 -5.56714
2.34973 -8.19588 -5.53027
2.1918 -8.21325 -5.47369
2.41007 -8.22291 -5.5667
2.40994 -8.24336 -5.54561
2.32887 -8.24261 -5.51591
1.94643 -8.25195 -5.33636
2.17303 -8.25664 -5.45053
2.3184 -8.26001 -5.49828
2.39959 -8.26746 -5.54901
2.1937 -8.26905 -5.44359
2.13555 -8.27493 -5.42487
2.067 -8.27644 -5.40359
2.37869 -8.29302 -5.52875
2.37869 -8.29302 -5.52875
2.3912 -8.30156 -5.53734
2.47029 -8.30354 -5.57626
2.17302 -8.31724 -5.45047
2.06491 -8.31589 -5.39191
2.52825 -8.32423 -5.55872
2.02532 -8.3339 -5.3544
2.02532 -8.3339 -5.3544
2.00253 -8.33397 -5.36415
2.09389 -8.34405 -5.3905
2.14578 -8.35275 -5.40048
2.23309 -8.35696 -5.44487
2.14793 -8.36659 -5.41246
2.14375 -8.38426 -5.40948
2.19571 -8.38793 -5.43439
2.15195 -8.39437 -5.39412
2.18111 -8.3969 -5.41406
2.2143 -8.43583 -5.4216
2.37647 -8.4574 -5.49606
2.25461 -7.86772 -5.58508
2.25461 -7.86772 -5.58508
2.40412 -7.87565 -5.60916
1.99901 -7.89256 -5.48744
2.48289 -7.89767 -5.60568
2.02195 -7.90037 -5.51353
2.54908 -7.90762 -5.57291
2.51384 -7.90776 -5.58022
2.58635 -7.92008 -5.56221
2.48304 -7.93674 -5.62677
2.41233 -7.94038 -5.5995
1.95117 -7.93782 -5.45926
2.38124 -7.9445 -5.6039
2.19225 -7.94332 -5.55775
2.17142 -7.94303 -5.54347
2.56358 -7.94939 -5.57225
2.54503 -7.94977 -5.59102
2.12988 -7.95934 -5.53021
2.42899 -7.96673 -5.61087
2.514 -7.98343 -5.60138
2.48303 -7.99735 -5.62677
2.60285 -7.99931 -5.55241
2.60285 -7.99931 -5.55241
2.09859 -8.0026 -5.49838
2.52851 -8.01161 -5.60077
2.52851 -8.01161 -5.60077
2.14836 -8.00897 -5.49635
2.48921 -8.01603 -5.62047
2.59049 -8.01732 -5.56488
2.14835 -8.02985 -5.49632
2.11514 -8.03583 -5.48875
2.4954 -8.03994 -5.61417
2.47671 -8.04095 -5.61192
2.30434 -8.05354 -5.57706
2.45816 -8.06222 -5.63074
2.45816 -8.06222 -5.63074
2.47887 -8.06312 -5.6239
2.16277 -8.08794 -5.47484
2.04429 -8.08773 -5.41959
2.56169 -8.09419 -5.60226
2.34578 -8.09429 -5.56932
2.3021 -8.11035 -5.54422
2.23966 -8.1116 -5.50185
1.98825 -8.10821 -5.40683
2.04845 -8.11911 -5.42238
2.15445 -8.13067 -5.46916
2.34138 -8.17175 -5.52449
2.57598 -8.18138 -5.56557
2.43506 -8.19712 -5.58363
1.99019 -8.2016 -5.37688
2.17514 -8.20675 -5.4623
2.33519 -8.21888 -5.53069
2.23118 -8.21761 -5.47493
2.15849 -8.21696 -5.45093
2.07117 -8.2201 -5.40645
2.60073 -8.22685 -5.54059
2.10448 -8.22473 -5.42921
2.34354 -8.24095 -5.5365
2.08983 -8.23685 -5.40866
2.25616 -8.24198 -5.49194
2.25616 -8.24198 -5.49194
2.52836 -8.25675 -5.57967
2.15634 -8.25642 -5.43901
2.10861 -8.25612 -5.43193
2.22286 -8.26553 -5.46928
1.92784 -8.26144 -5.34917
2.02531 -8.27437 -5.35429
2.42231 -8.28387 -5.5331
2.40362 -8.28695 -5.53079
2.05038 -8.28457 -5.39238
2.1003 -8.29884 -5.42636
2.01087 -8.30066 -5.36995
2.15837 -8.30636 -5.42995
2.03779 -8.31528 -5.36285
2.22692 -8.32158 -5.45119
2.3121 -8.32448 -5.48361
1.99007 -8.32019 -5.35573
1.93396 -8.3259 -5.32797
2.30998 -8.35872 -5.47176
2.2457 -8.3586 -5.4744
2.21015 -8.36373 -5.41879
2.21015 -8.36373 -5.41879
2.56346 -8.37004 -5.55127
2.58389 -8.39857 -5.50807
2.11878 -8.39646 -5.39253
2.61292 -8.40271 -5.5069
2.48873 -8.40434 -5.54228
2.19989 -8.4068 -5.43735
2.54046 -8.41966 -5.52505
2.07939 -8.42761 -5.39114
2.52816 -8.4335 -5.5379
2.38694 -8.44105 -5.51363
2.36828 -8.44416 -5.51154
2.30568 -8.44177 -5.44786
2.05645 -8.44063 -5.36502
2.42218 -8.44747 -5.51202
2.07384 -7.88086 -5.52341
2.27334 -7.89496 -5.58765
2.30651 -7.89704 -5.5891
2.34805 -7.92036 -5.60226
2.5345 -7.92435 -5.57312
2.40614 -7.96845 -5.6001
2.57601 -7.987 -5.56572
2.35647 -8.00874 -5.62885
2.52634 -8.02284 -5.5887
2.38127 -8.02705 -5.60405
2.09005 -8.05702 -5.45067
2.28532 -8.07525 -5.51183
2.52631 -8.10224 -5.58856
2.46839 -8.11083 -5.60634
1.93209 -8.11154 -5.37297
2.39351 -8.14342 -5.57045
2.19809 -8.16234 -5.4884
2.60503 -8.17718 -5.56447
2.356 -8.17635 -5.54483
2.356 -8.17635 -5.54483
1.96947 -8.18502 -5.38354
2.48919 -8.19892 -5.62036
2.58001 -8.21025 -5.54733
2.51774 -8.28524 -5.54099
2.33912 -8.30267 -5.49155
2.19785 -8.31611 -5.44637
2.59642 -8.36427 -5.51672
2.55085 -8.39349 -5.52188
2.55085 -8.39349 -5.52188
2.39715 -8.39896 -5.49484
1.96503 -8.39459 -5.31789
2.2476 -8.40186 -5.44429
2.2476 -8.40186 -5.44429
2.23512 -8.40582 -5.43578
2.32647 -8.41902 -5.46185
2.46386 -8.43341 -5.54059
2.59642 -8.43739 -5.51671
2.42696 -7.91675 -5.61993
2.44352 -8.00015 -5.61032
1.93645 -7.99753 -5.41779
2.60903 -8.07442 -5.54613
2.32686 -8.13832 -5.52499
2.43077 -8.16843 -5.55977
2.06882 -8.16573 -5.35251
2.46409 -8.21068 -5.58246
2.46397 -8.3064 -5.56148
2.37683 -8.33125 -5.55908
2.36827 -8.33236 -5.51137
2.35197 -8.33971 -5.56316
2.43077 -8.35649 -5.5598
2.33912 -8.38209 -5.49155
2.31021 -8.38883 -5.51378
2.30164 -8.3899 -5.46602
2.15691 -7.92527 -5.54405
2.15691 -7.92527 -5.54405
2.07374 -7.95775 -5.50244
2.07374 -7.95775 -5.50244
2.34376 -8.06626 -5.57845
2.59669 -8.07256 -5.55872
2.59669 -8.07256 -5.55872
2.18166 -8.0794 -5.51903
2.02345 -8.09344 -5.39938
2.05656 -8.22907 -5.38605
2.59239 -8.28525 -5.53488
2.4723 -8.28767 -5.56706
2.50956 -8.34194 -5.55643
2.2984 -7.99599 -5.62541
2.36459 -8.16269 -5.59264
2.64423 -7.88201 -5.53859
2.81198 -8.28284 -5.50717
2.71237 -8.3713 -5.49649
2.63581 -8.37355 -5.51221
2.76416 -8.38167 -5.48529
3.18137 -7.86432 -5.27435
2.69375 -7.86984 -5.49458
2.65655 -7.88268 -5.51123
2.74134 -7.9376 -5.48033
2.74134 -7.9376 -5.48033
2.67734 -7.94355 -5.52516
2.67521 -7.94539 -5.51334
2.69168 -7.94829 -5.50333
2.7042 -7.95684 -5.51196
2.79305 -7.96859 -5.46315
2.62774 -8.00969 -5.54855
2.79305 -8.01768 -5.46312
2.67526 -8.02898 -5.5136
2.66702 -8.05856 -5.52873
2.68352 -8.08764 -5.51888
2.63609 -8.14875 -5.55424
2.69818 -8.16741 -5.53937
2.72291 -8.20766 -5.51434
2.86152 -8.21319 -5.46332
2.82831 -8.21312 -5.46153
2.69615 -8.21671 -5.54837
2.82212 -8.22477 -5.46777
2.72503 -8.23193 -5.52608
2.79952 -8.23464 -5.49893
3.05348 -8.25834 -5.34933
2.99572 -8.26 -5.38805
2.95643 -8.26024 -5.40768
3.01418 -8.26901 -5.36891
3.01418 -8.26901 -5.36891
3.23934 -8.26929 -5.25703
2.8593 -8.27142 -5.45103
2.74148 -8.27648 -5.50134
2.849 -8.2799 -5.4547
2.849 -8.2799 -5.4547
2.75401 -8.28502 -5.51004
2.84917 -8.2928 -5.47588
2.82844 -8.293 -5.48251
2.82844 -8.293 -5.48251
2.80987 -8.29306 -5.4955
2.76 -8.30013 -5.48245
3.2208 -8.30725 -5.27562
3.18376 -8.30779 -5.30763
2.75599 -8.31302 -5.50072
2.75383 -8.3243 -5.4888
3.02473 -8.32475 -5.38676
2.62337 -8.32577 -5.52432
2.67521 -8.33403 -5.51334
2.75383 -8.34104 -5.48877
2.83864 -8.35098 -5.4581
2.79124 -8.36097 -5.49355
2.70623 -8.361 -5.50299
2.70623 -8.361 -5.50299
2.8178 -8.3695 -5.44394
2.70626 -8.38188 -5.5031
2.64631 -8.38231 -5.52989
2.80341 -8.40101 -5.45982
2.63174 -7.86619 -5.53014
3.16905 -7.86455 -5.28696
3.16905 -7.86455 -5.28696
3.22897 -7.8767 -5.26025
2.88604 -7.88113 -5.41705
3.09881 -7.8817 -5.31725
2.64841 -7.91759 -5.54153
3.10884 -7.92889 -5.27196
3.21028 -7.92888 -5.25798
3.15875 -7.93041 -5.2906
3.11316 -7.93247 -5.2957
3.11533 -7.93478 -5.3076
2.70838 -7.94961 -5.51486
3.11717 -7.95091 -5.27757
2.77237 -7.96455 -5.47003
3.28262 -7.966 -5.23386
2.68555 -8.01638 -5.50983
2.83217 -8.01807 -5.4223
2.83217 -8.01807 -5.4223
3.04524 -8.05889 -5.35881
2.78069 -8.07748 -5.47565
2.66902 -8.08134 -5.51955
2.84279 -8.10345 -5.46083
2.75183 -8.11242 -5.49797
2.80757 -8.11378 -5.46252
2.83013 -8.12584 -5.43124
2.75182 -8.1312 -5.49789
3.25162 -8.13849 -5.24422
2.65255 -8.1423 -5.5442
2.66901 -8.15448 -5.51953
2.99971 -8.15624 -5.36977
2.62571 -8.16346 -5.55751
2.86135 -8.16367 -5.44217
3.1794 -8.16524 -5.28358
3.01421 -8.17085 -5.36911
3.23711 -8.18027 -5.24481
3.22262 -8.18968 -5.24551
2.68569 -8.19651 -5.53087
2.73528 -8.1972 -5.50748
2.92544 -8.20094 -5.41818
3.18974 -8.20068 -5.28021
2.80971 -8.20595 -5.47437
2.65271 -8.21064 -5.56534
2.72507 -8.21313 -5.52628
2.72507 -8.21313 -5.52628
2.74149 -8.21799 -5.50139
3.01838 -8.21895 -5.37198
2.97098 -8.23204 -5.40729
2.88618 -8.24716 -5.43802
2.79535 -8.25132 -5.49602
2.79535 -8.25132 -5.49602
3.03708 -8.25346 -5.37428
3.0102 -8.25372 -5.38727
2.89656 -8.27033 -5.44035
2.97302 -8.27078 -5.40393
3.20239 -8.27752 -5.30962
3.20239 -8.27752 -5.30962
2.92759 -8.28578 -5.43001
2.86764 -8.28617 -5.45674
2.64009 -8.28734 -5.5359
3.08032 -8.28834 -5.33612
3.04324 -8.29302 -5.36798
2.67311 -8.29767 -5.52197
2.7912 -8.29931 -5.49332
2.86364 -8.3043 -5.47504
2.77867 -8.31172 -5.48463
3.03706 -8.313 -5.37419
3.03706 -8.313 -5.37419
2.85328 -8.31901 -5.47839
2.8388 -8.32843 -5.47913
2.78499 -8.33079 -5.49945
2.78499 -8.33079 -5.49945
2.82427 -8.34411 -5.47964
3.02473 -8.34564 -5.38676
3.02473 -8.34564 -5.38676
2.85732 -8.34894 -5.46033
2.7518 -8.35896 -5.49783
2.85947 -8.36693 -5.4722
2.80356 -8.36801 -5.4808
2.76417 -8.36913 -5.48532
2.87197 -8.37129 -5.48065
2.73717 -8.37213 -5.47752
2.85099 -8.38099 -5.44554
2.876 -8.38869 -5.46257
2.64195 -8.4048 -5.50574
2.64195 -8.4048 -5.50574
2.66054 -8.41721 -5.49281
2.66054 -8.41721 -5.49281
2.71227 -8.42627 -5.47571
2.64409 -8.42697 -5.51755
2.65853 -8.44247 -5.50195
3.15868 -7.90325 -5.29025
3.15868 -7.90325 -5.29025
2.79494 -7.90526 -5.43312
2.78664 -7.93895 -5.44783
2.93147 -7.9821 -5.39098
3.2083 -7.99902 -5.26715
3.12973 -8.00773 -5.29179
2.66281 -8.01146 -5.52567
2.66281 -8.01146 -5.52567
3.06363 -8.07088 -5.32475
2.83231 -8.07701 -5.44333
2.6215 -8.08082 -5.55446
2.96062 -8.19555 -5.41066
2.99773 -8.28697 -5.37898
2.7662 -8.38462 -5.47636
2.72479 -8.39301 -5.48433
2.6709 -8.40355 -5.48946
2.74133 -8.42858 -5.48029
2.76216 -7.91698 -5.49449
2.95631 -7.92145 -5.38686
3.08833 -7.95761 -5.29977
2.6421 -7.96955 -5.52679
2.6421 -7.96955 -5.52679
2.70823 -7.97532 -5.49379
3.11317 -8.00766 -5.29572
3.11317 -8.00766 -5.29572
2.72477 -8.01902 -5.48418
2.72477 -8.01902 -5.48418
2.65042 -8.05744 -5.53238
3.07198 -8.05847 -5.33044
2.69186 -8.10967 -5.52461
3.19591 -8.12436 -5.27397
2.62991 -8.12905 -5.56058
2.79521 -8.14852 -5.4751
2.70437 -8.16 -5.53311
3.28697 -8.32253 -5.25772
3.1879 -8.34019 -5.31024
2.89442 -8.34636 -5.42854
3.10949 -8.37857 -5.3559
2.62975 -8.38146 -5.53938
2.62975 -8.38146 -5.53938
2.99339 -7.87498 -5.35503
2.69574 -7.91039 -5.48537
3.05099 -7.99093 -5.29536
3.16674 -8.03204 -5.25418
2.72087 -8.1723 -5.52325
3.15039 -8.18303 -5.28488
2.69617 -8.23132 -5.54849
2.69617 -8.23132 -5.54849
3.2044 -8.33791 -5.30061
3.2044 -8.33791 -5.30061
2.79938 -8.39093 -5.47787
3.15921 -8.27634 -5.35353
3.29952 -8.37937 -5.27193
2.91044 -7.87486 -5.35555
2.88635 -8.26117 -5.45912
3.24996 -7.89931 -5.29527
1.05698 -5.0898 -6.06053
1.04645 -5.1487 -6.00087
0.979773 -5.24354 -5.90688
1.1831 -5.47737 -5.85498
1.08606 -5.10343 -6.05954
0.917532 -5.14568 -5.94171
0.917532 -5.14568 -5.94171
1.1275 -5.15127 -6.03102
0.969551 -5.19402 -5.95256
0.929925 -5.22566 -5.89365
1.19385 -5.30128 -5.97791
1.22491 -5.31917 -5.98814
1.00682 -5.32182 -5.87976
1.21447 -5.33254 -5.97043
1.03781 -5.35924 -5.86891
1.15414 -5.39337 -5.91264
1.15414 -5.39337 -5.91264
1.19143 -5.42023 -5.88145
1.15406 -5.43072 -5.89151
1.20391 -5.4598 -5.86932
1.20374 -5.49608 -5.8476
0.978012 -5.08615 -6.02144
1.00492 -5.10375 -6.0081
0.894783 -5.11767 -5.95792
1.04026 -5.12893 -6.0072
1.21052 -5.24312 -6.01018
1.19184 -5.24635 -6.02258
1.19362 -5.34883 -5.93521
1.02327 -5.3561 -5.86937
1.12081 -5.4116 -5.86887
1.13322 -5.47206 -5.85631
0.872045 -5.08566 -5.99495
0.876044 -5.14561 -5.93456
0.938191 -5.24114 -5.8783
0.905007 -5.2475 -5.89136
0.992273 -5.26437 -5.89481
0.992273 -5.26437 -5.89481
1.22491 -5.28703 -6.0088
1.22491 -5.28703 -6.0088
0.992222 -5.29754 -5.87378
1.1461 -5.30948 -5.9707
1.1832 -5.46899 -5.85555
0.921752 -5.14783 -5.94498
1.2086 -5.20208 -6.0761
0.892572 -5.21002 -5.90384
0.955045 -5.12346 -5.99481
0.971435 -5.31876 -5.90099
1.17907 -5.39855 -5.90889
1.1709 -5.45799 -5.96631
1.16248 -5.46565 -5.91855
1.15405 -5.47331 -5.87074
1.15405 -5.47331 -5.87074
0.98798 -5.48956 -5.84973
0.763948 -5.18112 -5.93553
1.67297 -5.85431 -5.86389
1.74574 -5.78504 -5.90881
1.90757 -5.83301 -5.88461
1.69572 -5.84279 -5.85378
1.64796 -5.8426 -5.84662
1.87212 -5.85342 -5.84993
1.9241 -5.86424 -5.8748
1.83277 -5.89509 -5.84898
1.73114 -5.78891 -5.88844
1.78929 -5.79118 -5.89224
1.68142 -5.79543 -5.91136
1.66261 -5.79509 -5.88791
1.87018 -5.83293 -5.88002
1.83477 -5.87018 -5.86024
1.76856 -5.84442 -5.89325
1.36266 -5.10438 -6.19388
1.41254 -5.15882 -6.19223
1.41254 -5.15882 -6.19223
1.5697 -5.51444 -6.01765
1.53852 -5.52242 -5.98627
1.43555 -5.08625 -6.23955
1.35443 -5.08571 -6.20938
1.63952 -5.10318 -6.32832
1.39178 -5.15561 -6.19293
1.50199 -5.16358 -6.2281
1.43951 -5.17123 -6.17923
1.36466 -5.19159 -6.14313
1.36466 -5.19159 -6.14313
1.36243 -5.23821 -6.10985
1.28325 -5.26658 -6.04916
1.27907 -5.32488 -6.02554
1.79454 -5.40861 -6.14172
1.23299 -5.45197 -5.90971
1.77776 -5.45942 -6.10918
1.24346 -5.46969 -5.90692
1.28283 -5.474 -5.90813
1.75698 -5.4969 -6.09523
1.72576 -5.50093 -6.08424
1.6176 -5.52315 -6.04021
1.31394 -5.52195 -5.89795
1.51772 -5.55055 -5.98674
1.82517 -5.5589 -6.03204
1.54878 -5.5984 -5.96162
1.32419 -5.59763 -5.85255
1.73364 -5.6324 -5.98466
1.80425 -5.65149 -5.99678
1.80425 -5.65149 -5.99678
1.67764 -5.66063 -5.99292
1.74608 -5.67016 -5.99286
1.74608 -5.67016 -5.99286
1.55063 -5.66983 -5.91026
1.77517 -5.67854 -5.99194
1.5881 -5.69218 -5.93597
1.58598 -5.69512 -5.92401
1.52763 -5.69635 -5.86311
1.78523 -5.7559 -5.91055
1.78309 -5.77141 -5.89859
1.57086 -5.0955 -6.30681
1.58752 -5.10507 -6.31818
1.39988 -5.18121 -6.14145
1.45615 -5.18288 -6.19057
1.29167 -5.18565 -6.09677
1.30405 -5.2751 -6.04875
1.64113 -5.30264 -6.21381
1.51199 -5.33898 -6.1194
1.23119 -5.34107 -5.98224
1.2851 -5.35763 -5.9623
1.89835 -5.40547 -6.13466
1.75509 -5.42436 -6.14626
1.7986 -5.42823 -6.1235
1.77785 -5.43459 -6.13025
1.49501 -5.44752 -6.0237
1.24756 -5.44569 -5.90939
1.24756 -5.44569 -5.90939
1.76537 -5.45122 -6.12178
1.60525 -5.45771 -6.07367
1.91468 -5.49045 -6.06801
1.91468 -5.49045 -6.06801
1.74853 -5.51119 -6.0683
1.7402 -5.52992 -6.06261
1.49693 -5.53153 -5.97264
1.49693 -5.53153 -5.97264
1.64871 -5.53469 -6.03596
1.53227 -5.54428 -5.9863
1.53227 -5.54428 -5.9863
1.50321 -5.55997 -5.98743
1.31797 -5.56741 -5.8587
1.82101 -5.5735 -6.02927
1.8502 -5.5832 -6.04939
1.8335 -5.58095 -6.03772
1.8335 -5.58095 -6.03772
1.76087 -5.58707 -6.03482
1.80852 -5.59849 -6.02077
1.53213 -5.60035 -5.9503
1.32842 -5.59897 -5.87645
1.76915 -5.60596 -6.0403
1.69018 -5.60561 -6.02231
1.50081 -5.61435 -5.91208
1.70269 -5.61935 -6.03091
1.70269 -5.61935 -6.03091
1.80638 -5.62446 -6.00874
1.80638 -5.62446 -6.00874
1.67141 -5.6304 -5.99899
1.77103 -5.6471 -5.98923
1.57146 -5.65226 -5.92462
1.59226 -5.65874 -5.93881
1.82706 -5.67846 -5.98108
1.79373 -5.67814 -5.95824
1.49662 -5.67992 -5.88846
1.89131 -5.68976 -5.95752
1.72509 -5.73106 -5.9366
1.66248 -5.10144 -6.35464
1.35845 -5.18017 -6.14937
1.92328 -5.39831 -6.13676
1.89408 -5.45225 -6.11079
1.76121 -5.47524 -6.11896
1.83974 -5.53903 -6.03168
1.32433 -5.54699 -5.89468
1.51541 -5.58143 -5.95317
1.47807 -5.58531 -5.92819
1.73992 -5.61588 -5.99934
1.48622 -5.63709 -5.89168
1.48622 -5.63709 -5.89168
1.73129 -5.69852 -5.93037
1.31272 -5.11334 -6.15977
1.31272 -5.11334 -6.15977
1.30807 -5.30386 -6.00949
1.46954 -5.5805 -5.88017
1.87286 -5.61615 -6.01225
1.54029 -5.62285 -5.91382
1.58995 -5.75419 -5.88466
1.6398 -5.76258 -5.88298
1.80259 -5.49152 -6.08421
1.45739 -5.56687 -5.95598
1.73594 -5.57457 -6.03867
1.88529 -5.61405 -6.0058
1.45718 -5.69354 -5.89288
1.45718 -5.69354 -5.89288
1.79798 -5.70565 -5.9821
1.30371 -5.36568 -5.94337
1.61075 -5.66225 -5.88411
1.82806 -5.34044 -6.2067
1.65244 -5.59595 -5.93335
1.37821 -5.39411 -5.87442
2.04875 -5.83534 -5.88817
1.96143 -5.85581 -5.86436
2.51779 -5.77828 -5.8808
2.51968 -5.80605 -5.85062
2.01154 -5.80746 -5.91969
2.49278 -5.81567 -5.86374
1.93247 -5.85384 -5.88071
1.93247 -5.85384 -5.88071
1.94068 -5.86616 -5.86526
2.14649 -5.77853 -5.92909
2.3913 -5.78057 -5.90401
2.3913 -5.78057 -5.90401
2.50527 -5.79488 -5.87219
2.03224 -5.80423 -5.91269
2.15032 -5.85818 -5.86877
2.39309 -5.87291 -5.85292
2.32673 -5.90016 -5.86464
2.13393 -5.84507 -5.89984
2.13393 -5.84507 -5.89984
2.14204 -5.88214 -5.8634
1.95095 -5.89006 -5.84673
1.97189 -5.83832 -5.88205
2.00919 -5.86943 -5.86565
2.00919 -5.86943 -5.86565
2.19177 -5.91338 -5.85516
2.08067 -5.45819 -6.06668
2.1201 -5.52583 -6.04164
2.09905 -5.60244 -5.98531
2.03294 -5.60281 -6.01895
2.10959 -5.61424 -6.00331
1.992 -5.32969 -6.17316
2.3391 -5.34107 -6.21329
1.96284 -5.35169 -6.17384
1.98355 -5.36596 -6.14633
2.12019 -5.46757 -6.06255
2.08062 -5.5029 -6.0459
2.12009 -5.5154 -6.04156
2.52255 -5.53478 -5.9682
1.94152 -5.536 -6.03384
2.53284 -5.54101 -5.9644
2.09927 -5.55076 -6.02745
2.09927 -5.55076 -6.02745
2.11171 -5.60184 -6.01518
2.32522 -5.61285 -5.95811
2.28788 -5.61395 -5.96851
2.09899 -5.61504 -5.98499
2.08665 -5.61416 -5.99782
2.08665 -5.61416 -5.99782
2.07002 -5.6276 -5.98662
2.06988 -5.64535 -5.98586
2.1696 -5.65476 -5.97652
2.15914 -5.65974 -5.95886
2.00139 -5.68051 -5.96526
2.17781 -5.6911 -5.96101
2.10096 -5.70559 -5.95509
2.15685 -5.72934 -5.92569
2.0883 -5.75749 -5.92522
2.15907 -5.76924 -5.93808
2.16925 -5.77411 -5.91318
2.60172 -5.20286 -6.34715
2.37456 -5.31529 -6.23305
2.34497 -5.35291 -6.14972
1.98987 -5.35675 -6.16118
1.97116 -5.36615 -6.159
2.03747 -5.40242 -6.12627
2.13711 -5.40657 -6.11626
2.55638 -5.43162 -6.07484
2.55005 -5.44815 -6.05998
2.55005 -5.44815 -6.05998
1.98121 -5.46045 -6.09225
1.98121 -5.46045 -6.09225
1.9666 -5.4947 -6.07187
2.32759 -5.5038 -6.01213
1.94373 -5.50926 -6.0667
1.94373 -5.50926 -6.0667
2.35247 -5.53616 -6.00809
2.41469 -5.54861 -5.99347
1.98093 -5.55077 -6.03503
2.43527 -5.58588 -5.96547
2.15088 -5.59091 -5.97409
2.13636 -5.62964 -5.97469
2.05128 -5.62966 -5.98416
2.27955 -5.64212 -5.96294
2.10105 -5.65153 -5.97604
2.45802 -5.65469 -5.94955
2.05119 -5.65343 -5.96313
2.05119 -5.65343 -5.96313
2.08449 -5.65897 -5.98573
2.30638 -5.67321 -5.93472
2.09693 -5.68911 -5.97343
2.22132 -5.691 -5.94421
2.02841 -5.69738 -5.97314
1.93298 -5.69746 -5.98601
2.07604 -5.69938 -5.95892
2.36448 -5.7014 -5.93228
2.15078 -5.71614 -5.95309
2.15078 -5.71614 -5.95309
1.98661 -5.7751 -5.92345
2.58139 -5.1493 -6.41733
2.60632 -5.15345 -6.41335
2.34318 -5.31155 -6.19518
1.94017 -5.3652 -6.16983
2.5297 -5.38004 -6.13004
2.12258 -5.38981 -6.11685
2.12258 -5.38981 -6.11685
1.9523 -5.40425 -6.11476
2.06856 -5.4232 -6.11592
1.97299 -5.4316 -6.12817
2.1268 -5.43584 -6.11996
1.93143 -5.45426 -6.10028
2.12235 -5.48972 -6.07465
2.14701 -5.56013 -6.01382
2.30051 -5.58299 -5.99812
2.09725 -5.58302 -6.0161
2.18402 -5.71408 -5.95486
1.9806 -5.7099 -5.97173
2.09679 -5.72437 -5.95222
2.60201 -5.16152 -6.38937
1.96921 -5.33617 -6.18901
2.55867 -5.40068 -6.10793
2.6082 -5.41064 -6.0634
2.58278 -5.47651 -5.98325
2.36701 -5.51419 -6.00746
2.05999 -5.5188 -6.06795
2.05999 -5.5188 -6.06795
2.10964 -5.53504 -6.02405
2.35031 -5.56423 -5.99605
2.30064 -5.56446 -6.01933
2.55369 -5.57048 -5.97862
2.14279 -5.57261 -6.01064
2.1385 -5.57643 -5.9866
2.1385 -5.57643 -5.9866
2.32116 -5.64553 -5.97624
1.93499 -5.64503 -5.97678
2.37902 -5.70977 -5.93176
2.61642 -5.43554 -6.04808
2.08923 -5.47534 -6.09402
2.01845 -5.47057 -6.06073
2.55773 -5.58488 -5.9604
2.17173 -5.62877 -5.98837
1.95188 -5.58513 -6.03044
2.16054 -5.27406 -6.22665
2.85725 -5.33007 -6.04068
2.8593 -5.34048 -6.03177
2.77016 -5.34911 -6.05952
2.96442 -5.37684 -5.93068
2.75144 -5.3791 -6.03691
2.9742 -5.44486 -5.84874
2.62705 -5.14079 -6.40646
3.22166 -5.24721 -5.91286
2.88676 -5.26286 -6.10272
3.143 -5.27149 -5.93768
2.89697 -5.28242 -6.07819
3.09074 -5.33887 -5.89166
3.01424 -5.34761 -5.92834
2.83227 -5.34873 -6.02397
2.68119 -5.3496 -6.10855
2.76384 -5.35933 -6.04474
2.76384 -5.35933 -6.04474
2.83209 -5.36091 -6.00273
2.74715 -5.37175 -6.03343
2.74105 -5.38239 -6.05484
2.84841 -5.38461 -5.97157
2.88571 -5.38963 -5.9552
2.70136 -5.42794 -6.01746
2.65962 -5.43799 -5.98892
2.75689 -5.44589 -5.94547
2.7218 -5.44714 -5.9684
2.6907 -5.45771 -5.97861
2.78756 -5.51074 -5.87218
2.65158 -5.18095 -6.34499
3.13933 -5.20113 -5.99811
3.04424 -5.21221 -6.05363
2.90562 -5.22134 -6.12604
