ply
format ascii 1.0
comment VCGLIB generated
element vertex 1941
property float x
property float y
property float z
element face 0
property list uchar int vertex_indices
end_header
7386.01 2946.9 5466.37 
7201.27 2941.7 5455.05 
7219.5 2941.54 5431.55 
7011.69 2938.33 5404.74 
7236.26 2938.47 5440.69 
7325.46 2917.59 5443.42 
7414.89 2905.1 5459.06 
7196.43 2893.49 5416.14 
7150.77 2888.3 5414.21 
7298.66 2881.18 5451.86 
7184.14 2878.95 5424.91 
7125.83 2873.68 5410.84 
7246.29 2862.26 5423.11 
6858.59 2853.08 5423.54 
7075.73 2830.86 5390.85 
7229.56 2830.92 5413.71 
6934.43 2822.45 5372.3 
7212.8 2812.08 5404.53 
7212.8 2812.08 5404.53 
6901.43 2810.07 5382.49 
7223.22 2795.41 5407.68 
7119.13 2780.74 5383.83 
7046.33 2772.34 5369.45 
6956.79 2760.78 5345.79 
7289.34 2757.78 5394.94 
7164.56 2749.38 5372.65 
6905.17 2747.37 5358.64 
7060.86 2745.24 5369.6 
7031.82 2736.91 5369.16 
6816.69 2732.04 5397.66 
6919.32 2721.18 5338.09 
6919.32 2721.18 5338.09 
7241.09 2719.02 5363.2 
6810.37 2713.24 5391.52 
7274.1 2712.69 5352.75 
6977.26 2708.57 5331.28 
7373.68 2704.34 5358.63 
6954.57 2702.35 5336.76 
7294.91 2702.3 5359.31 
7294.91 2702.3 5359.31 
7436.08 2701.23 5369.74 
6872.04 2700.48 5361.08 
7416.84 2696.9 5338.52 
7033.69 2689.92 5357.22 
7033.69 2689.92 5357.22 
7298.63 2675.05 5335.45 
6954.56 2664.82 5336.81 
7004.06 2654.31 5322.77 
7037.42 2648.09 5333.42 
7329.15 2645.66 5303.05 
7379.22 2633.23 5323.09 
7035.19 2629.27 5324.42 
7005.93 2628.18 5310.85 
7205.36 2628.21 5335.74 
7335.85 2628.13 5330.06 
7039.28 2606.32 5321.53 
7250.38 2591.53 5303.63 
6832.37 2579.52 5344.21 
7016.58 2579.27 5327.12 
7136.65 2576.03 5318.4 
6853.42 2574.37 5363.81 
7244.43 2568.69 5318.45 
6952.31 2566.81 5327.88 
7468.42 2563.39 5325.5 
7300.49 2561.39 5323.53 
6843.02 2559.77 5360.52 
7072.41 2557.34 5319.15 
7225.83 2547.88 5321.14 
7358.4 2530.04 5316.68 
7049.35 2529.1 5303.74 
6892.17 2525.16 5325.56 
7153.01 2521.78 5306.82 
6956.06 2520.8 5304.02 
7256.72 2519.67 5309.66 
6902.23 2504.2 5307.91 
6902.23 2504.2 5307.91 
7099.42 2504.17 5323.84 
7061.99 2501.03 5315.95 
7013.98 2493.64 5297.3 
6995.51 2485.39 5307.69 
7088.41 2484.18 5286.64 
7331.37 2485.21 5312.12 
6933.36 2483.33 5309.57 
7066.41 3137.77 5450.42 
7187.12 3027.32 5475.71 
7261.07 2931.1 5436.25 
6941.11 2910.19 5399.29 
6973.9 2887.07 5375.9 
7057.1 2889.27 5393.63 
7215 2864.27 5413.74 
6994.73 2847.5 5382.32 
6919.92 2795.36 5372.04 
7301.28 2784.67 5365.11 
7003.16 2780.84 5389.51 
7003.16 2780.84 5389.51 
7363.62 2736.77 5376.57 
7218.39 2726.42 5368.76 
7106.1 2640.9 5350.86 
7395.61 2636.26 5311.32 
7462.12 2623.76 5319.26 
7146.67 2607.23 5300.89 
7304.58 2607.2 5320.6 
7387.4 2607.12 5317.32 
7387.4 2607.12 5317.32 
7180.4 2594.87 5332.43 
7051.56 2586.45 5312.87 
7383.32 2569.62 5320.11 
7138.54 2498.76 5306.33 
7162.16 3079.45 5472.38 
7162.16 3079.45 5472.38 
7394.56 3079.41 5481.55 
7223.98 3045.92 5449.46 
7353.25 3000.23 5489.76 
7070.12 2945.77 5426.73 
7152.64 2872.58 5402.28 
6949.31 2866.39 5393.52 
6849.7 2814.27 5387.42 
7048.57 2814.13 5378.43 
7043.73 2763.82 5339.58 
7363.27 2722.02 5355.36 
7363.27 2722.02 5355.36 
7076.86 2674.15 5337.17 
7076.86 2674.15 5337.17 
7350.6 2667.75 5343.37 
7437.16 2594.61 5316.07 
7437.16 2594.61 5316.07 
7093.24 2582.38 5325.48 
7093.24 2582.38 5325.48 
6977.98 2945.43 5373.08 
6870.53 2747.6 5393.84 
7151.16 2659.4 5318.71 
7151.16 2659.4 5318.71 
7242.2 2661.39 5309.52 
7465.8 2648.65 5295.61 
6993.29 2544.75 5298.63 
6993.29 2544.75 5298.63 
6861.64 2524.31 5357.77 
7039.29 2638.65 5321.52 
7039.29 2638.65 5321.52 
7445.73 2488.41 5331.1 
6867.13 2877.18 5438.74 
7296.01 2663.41 5305.59 
6864.64 2659.36 5292.31 
6864.64 2659.36 5292.31 
6949.31 3093.61 5393.45 
7268.89 3149.65 5526.05 
7434.66 3122.37 5519.12 
7434.66 3122.37 5519.12 
7430.57 3079.65 5522.03 
7399.43 3127.64 5520.46 
7354.01 3144.41 5531.63 
4837.22 1789.18 6304.43 
4837.22 1789.18 6304.43 
4910.64 1643.09 6361.75 
4886.92 1564.45 6290.6 
4923.9 1815.08 6256.99 
4923.9 1815.08 6256.99 
4852.02 1757.94 6325.85 
4833.34 1734.95 6328.43 
4890.78 1549.73 6266.72 
4870.44 1732.77 6302.18 
4867.07 1647.33 6368.27 
4807.69 1540.36 6269.26 
5052.02 1803.31 6201.35 
4965.62 1791.11 6269.96 
4858.06 1774.61 6311.02 
5176.44 1773.93 6183.15 
4809.11 1695.49 6387.98 
4816.37 1601.07 6297.93 
5039.67 1811.71 6210.07 
5181.35 1763.72 6243.3 
4866.57 1580.28 6326.17 
5309.43 1700.78 6187.59 
5385.65 3782.29 6136.35 
5066.16 3429.4 6000.47 
5173.36 3395.42 5938.29 
5173.36 3395.42 5938.29 
4987.26 3385.59 6000.14 
5202.09 3364.96 5918.32 
5083.74 3316.97 5914.02 
5396.04 3801.16 6139.85 
5409.76 3742.04 6077.04 
5282.78 3644.86 6058.1 
5429.2 3629.43 5978.55 
5236.84 3621.7 6034.35 
5197.61 3585.3 6051.45 
5176.58 3576.84 6031.54 
5331.66 3576.3 5980.96 
5226.2 3568.23 6009.78 
5166.15 3564.27 6028.35 
5166.15 3564.27 6028.35 
5410.01 3561.2 5939.01 
5465.67 3558.88 5910.28 
5333.55 3546.93 5969.12 
5263.18 3538.79 5983.96 
5262.91 3533.35 5962.92 
5260.97 3528.26 5975.05 
4953.4 3524.48 6119.41 
5333.29 3516.46 5948.03 
5068.83 3514.43 6051.76 
5428.35 3510.91 5915.59 
4814.69 3499.87 6158.23 
5204.85 3494.86 5969.21 
5267.03 3474.86 5959.96 
5095.22 3473.26 6001.24 
5417.37 3453.11 5870.5 
5078.51 3429.33 5991.7 
5078.51 3429.33 5991.7 
5094.92 3416.68 5980.41 
5028.69 3406.38 5992.05 
4948 3405.59 6017.36 
5107.06 3393.48 5950.39 
4834.3 3387.26 6059.63 
5046.93 3376.85 5961.33 
5408.59 3373.46 5834.27 
5280.45 3356.21 5876.53 
5358.76 3346.4 5834.87 
4809.12 3330.65 6034.88 
5228.63 3327.01 5881.35 
5311.17 3326.7 5844.21 
5435.16 3323.15 5805.02 
5348.36 3322.36 5831.54 
4860.44 3321.9 5988.2 
4860.44 3321.9 5988.2 
4918.52 3321.78 5982.01 
5358.84 3309.87 5834.33 
5346.17 3297.27 5822.49 
4870.76 3288.39 5984.13 
4870.76 3288.39 5984.13 
5240.74 3280.82 5851.39 
5279.61 3245.03 5813.69 
5269.21 3221.01 5810.39 
5295.81 3216.59 5780.96 
5237.99 3166.65 5800.51 
5451.92 3816.61 6124.37 
5319.56 3802.55 6169.83 
5319.56 3802.55 6169.83 
5340.16 3796.13 6155.18 
5163.63 3702.26 6157.29 
5143.06 3697.18 6171.77 
5256.04 3676.36 6073.78 
5256.04 3676.36 6073.78 
5363.19 3674.69 6011.66 
5195.94 3638.86 6084.56 
4947.61 3586.42 6155.32 
5290.49 3584.89 6010.16 
5290.49 3584.89 6010.16 
5333.84 3580.53 5990.07 
5364.55 3578.16 5957.76 
5308.89 3574.23 5986.46 
5211.54 3564.11 6010.21 
5467.55 3554.6 5898.56 
4933.07 3555.09 6154.98 
5196.9 3545.2 5995.96 
5457.14 3533.7 5895.25 
5457.14 3533.7 5895.25 
5273.34 3525.05 5966.09 
5027.68 3519.91 6080.73 
5140.91 3486.79 6003.83 
5432.19 3486.7 5891.69 
5432.19 3486.7 5891.69 
5105.64 3484.77 6004.42 
5353.59 3481.71 5912.44 
4981.44 3467.35 6036.16 
4971.04 3452.71 6032.81 
5452.19 3422.52 5835.17 
5406.96 3412.37 5867.16 
5204.37 3407.82 5926.82 
5088.67 3403.08 5974 
5076.09 3389.39 5961.49 
5059.55 3387.4 5973.57 
5150.29 3359.76 5923 
5402.55 3357.94 5849.21 
5088.39 3349.64 5953.08 
5344.52 3339.25 5855.47 
5408.54 3336.91 5834.56 
5418.71 3321.14 5816.63 
4906.17 3317.7 5990.74 
4827.22 3303.15 5990.63 
5290.35 3290.12 5837.65 
4814.89 3285.46 5999.16 
5165.93 3225.54 5848.48 
5192.92 3735.74 6171.29 
5436.05 3711.33 6026.84 
5431.39 3677.53 5987.59 
5121.64 3628.86 6123.53 
5385.85 3619.19 5998.66 
5385.85 3619.19 5998.66 
5447.56 3606.25 5954.96 
5273.87 3600.68 6008.22 
5137.61 3582.4 6069.67 
5137.61 3582.4 6069.67 
5401.69 3539.26 5945.4 
5401.69 3539.26 5945.4 
5277.19 3491.44 5942.21 
5277.19 3491.44 5942.21 
5215.17 3458.28 5965.01 
5181.52 3443.35 5932.83 
4937.41 3368.98 6000.58 
5234.66 3350.89 5866.48 
5466.16 3339.68 5793.5 
5238.24 3200.22 5821.59 
5412.21 3803.99 6107.3 
5317.12 3766.75 6139.59 
5370.24 3732.62 6073.21 
5246.15 3708.04 6112.61 
5303.98 3707.71 6085.11 
5394.12 3629.57 5992.68 
5113.16 3626.64 6108.25 
5335.76 3600.27 5978.09 
5253.04 3535.81 6001.71 
5364.28 3522.62 5936.77 
4900.37 3404.68 6026.56 
5470.56 3381.62 5811.52 
5470.56 3381.62 5811.52 
4974.62 3343.73 5988.05 
4887.48 3327.12 5993.5 
4932.78 3303.89 5961.52 
5304.59 3262.82 5817.06 
5193.1 3252.79 5860.93 
5237.97 3187.52 5800.66 
5228.07 3619.27 5998.11 
4989.05 3612.47 6147.23 
4989.05 3612.47 6147.23 
5095.74 3550.92 6043.23 
5376.35 3499.42 5907 
5020.43 3467.03 5998.02 
5281.28 3462.16 5939.42 
5281.28 3462.16 5939.42 
4995.74 3427.51 6015.4 
4995.74 3427.51 6015.4 
5210.08 3305.23 5891.39 
5317.65 3258.98 5863.85 
4837.39 3251.83 5972.87 
4819.01 3431.07 6176.71 
5065.08 3278.28 5916.66 
5065.08 3278.28 5916.66 
5034.24 3568.22 6107.94 
5034.24 3568.22 6107.94 
4990.32 3211.53 5913.34 
5433.39 3841.86 6134.46 
5367.24 3819.08 6160.11 
5450.01 3862.68 6136.38 
5778.81 3509.12 5742.86 
5603.05 3436.63 5787.26 
5919.67 3815.97 5871.57 
5560.45 3783.06 6007.95 
5733.17 3708.78 5891.77 
5780.29 3688.54 5847.81 
5606.7 3680.83 5901.21 
5606.7 3680.83 5901.21 
5658.4 3670.22 5888.84 
5645.59 3659.58 5863.17 
5557.02 3649.64 5915.48 
5567.5 3641.31 5918.33 
5742.22 3597.36 5797.74 
5587.76 3590.85 5882.78 
5817.99 3549.7 5725.71 
5649.12 3541.23 5818.3 
5642.23 3443.77 5770.25 
5493.47 3423.39 5819.67 
5736.57 3415.95 5696.12 
5485.52 3404.8 5846.48 
5713.01 3800.06 5935 
5921.59 3796.02 5859.44 
5671.62 3757.33 5943.02 
5671.62 3757.33 5943.02 
5693.77 3724.54 5895.64 
5706.11 3708.8 5886.89 
5689.37 3700.36 5877.5 
5665.01 3697.58 5915.92 
5753.43 3672.96 5856.19 
5831.19 3647.22 5780 
5491.12 3633.3 5948.13 
5546.38 3592.13 5899.03 
5546.38 3592.13 5899.03 
5653.23 3582.97 5815.43 
5845.31 3580.14 5751.78 
5503.11 3579.77 5918.72 
5521.5 3572.26 5895 
5688.5 3570.38 5814.57 
5861.76 3548.73 5740.02 
5661.36 3520.18 5801.89 
5595.12 3466.06 5814.07 
5654.55 3460.4 5761.52 
5613.33 3425.02 5768.55 
5613.33 3425.02 5768.55 
5751.13 3413.87 5696.23 
5728.41 3397.22 5701.63 
5501.69 3392.03 5813.84 
5501.69 3392.03 5813.84 
5947.89 3150.58 5671.39 
6084.23 3802.37 5768 
5613.9 3779.54 5970.2 
5593.31 3750.48 5984.86 
5593.31 3750.48 5984.86 
5580.63 3719.13 5972.96 
6033.99 3697.8 5740.2 
5563.57 3668.76 5942.86 
5563.57 3668.76 5942.86 
5522.07 3635.27 5936.94 
5665.92 3558.99 5818.95 
5611.56 3469.12 5802.46 
6084.18 3791.95 5768.25 
5769.25 3625.51 5802.7 
5508.88 3536.65 5882.72 
5685.99 3516.89 5784.56 
5562.04 3406.73 5824 
5660.28 3376.69 5725.66 
5520.07 3364.69 5790.18 
5520.07 3364.69 5790.18 
5808.05 3795.52 5902.28 
5951.02 3731.29 5743.21 
5616.81 3626.37 5883.57 
5616.81 3626.37 5883.57 
5496.24 3519.86 5870.64 
5545.86 3488.44 5856.75 
5797.43 3455.92 5740.39 
5652.05 3364.15 5731.54 
5523.89 3358.27 5766.37 
5524.18 3352.13 5787.25 
5712.74 3741.39 5913.8 
5768.36 3551.92 5739.87 
5687.76 3707.97 5910.4 
5687.76 3707.97 5910.4 
5495.96 3285.82 5849.59 
5495.96 3285.82 5849.59 
5496.52 3248.65 5891.63 
5529.68 3198.59 5889.56 
5984.26 4065.9 6030.1 
5922.58 3916.67 5921.9 
5920.03 3831.81 5892.09 
5898.96 3824.42 5872.51 
5898.09 4071.87 6098.74 
5889.55 4064.42 6083.65 
5913.29 3995.75 6003.19 
5939.88 3994.39 5973.65 
5814.46 3988.02 6059.72 
5925.31 3976.66 5973.54 
5731.72 3962.22 6083.69 
5653.1 3928.02 6104.54 
5683.79 3918.3 6072.25 
5873.01 3915.9 5943.92 
5895.96 3914.85 5951.74 
5522.14 3850.8 6096.04 
5509.81 3842.52 6104.64 
6004.26 3823.87 5835.52 
5915.75 4436.1 6171.11 
6121.05 4407.02 6009.89 
5880.34 4147.73 6164.4 
5871.21 4081.37 6107.24 
5871.21 4081.37 6107.24 
5798.9 4066.05 6134.41 
5788.47 4040.93 6131.19 
5804.91 4036.65 6119.58 
6119.76 4025.1 5926.1 
5964.53 3978.57 5956.16 
5840.72 3972.9 6009.32 
5840.72 3972.9 6009.32 
5789.29 3967.03 6042.82 
5719.98 3952.24 6134.29 
5853.04 3954.01 6000.66 
5576.65 3929.44 6134.64 
5599.43 3923.11 6129.12 
6103.69 3900.92 5820.69 
5525.1 3900.46 6160.46 
5819.26 3896.22 5960.97 
5874.89 3887.6 5932.17 
5827.49 3878.41 5955.02 
5874.6 3858.15 5911.07 
5928.19 3845.35 5886.66 
5814.88 3835.5 5942.64 
5954.78 3834.59 5857.02 
5907.37 3832.74 5880.07 
5552.77 3832.58 6055.98 
5573.62 3832.65 6062.44 
6124.54 4086.08 5964.95 
6083.38 4077.86 5994.52 
5934.46 4061.78 6030.59 
5815.33 4054.41 6122.83 
5843.51 4020.39 6060.47 
5612.59 3981.96 6175.44 
5879.57 3965.22 5971.44 
5541.84 3923.48 6169.86 
5750.86 3885.94 5963.68 
6117.84 3852.72 5800.41 
6076.29 3840.15 5795.01 
5890.17 4480.5 6125.55 
5686.6 4006.55 6123.28 
5798.3 4003.99 6092.39 
6057.63 3993.99 5935.45 
5796.9 3925.82 5995.15 
6055.75 3877.9 5809.63 
5805.03 3869.28 5981.54 
5998.57 3861.81 5871.32 
5704.81 3827.27 5940.67 
5704.81 3827.27 5940.67 
5936.01 4175.64 6135.53 
5894.57 4125.6 6143.69 
5894.57 4125.6 6143.69 
6062.25 4109.04 5966.9 
5910.11 4051.75 6069.05 
6053.53 4046.19 5938.37 
6057.64 3981.42 5935.45 
6042.5 3821.04 5755.37 
6020.63 3942.07 5961.87 
6120.41 4200.93 5968.03 
6079 4251.13 5976.21 
5911.17 4350.27 5856.37 
5936.29 4498.6 6156.65 
5951.02 4675.19 6170.36 
5957.02 4643.68 6155.55 
5940.43 4562.28 6153.49 
5907.21 4515.31 6156.04 
5990.53 4714.91 6174.12 
5952.94 4771.12 6158.14 
5798.91 4574.7 6134.34 
6120.4 4539.17 5968.08 
6022.83 5117.28 6108.57 
5877.84 5334.97 6134.17 
5922.07 5747.03 6177.12 
5917.67 5695.63 6158.92 
5985.53 5609.24 6113.8 
5931.6 5410.97 6117.28 
6110.25 5398.55 5985.93 
6122.93 5398.75 5997.95 
6013.39 5291.71 6030.32 
5931.89 5717.26 6138.32 
5921.76 5653.8 6156.16 
6037.58 5644.77 6122.18 
5998.18 5643.89 6125.98 
5979.53 5630.35 6128.57 
5843.14 5627.04 6177.12 
6000.07 5617.61 6114.07 
5896.79 5604.66 6152.6 
6012.4 5578.85 6105.33 
6026.62 5511.72 6084.66 
6026.62 5511.72 6084.66 
6079.95 5475.51 6038.99 
5902.81 5456.14 6137.71 
5843.13 5445.29 6177.22 
5945.8 5415.91 6096.77 
5945.8 5415.91 6096.77 
5914.84 5411.85 6107.94 
6027.91 5390.92 6030.65 
6059.1 5372.06 6032.58 
5962.15 5294.42 6077.3 
5962.15 5294.42 6077.3 
6085.94 5807.2 6162.08 
6085.94 5807.2 6162.08 
5985.5 5587.35 6113.97 
5947.71 5388.59 6084.73 
6120.42 5324.23 5967.85 
5898.41 5313.86 6119.55 
5984.62 5300.28 6050.72 
5984.62 5300.28 6050.72 
5992.5 5258.24 6024.02 
5848.6 5173.92 6119.98 
5969.1 5660.57 6125.32 
5874.03 5370.77 6158.05 
6038.64 5321.29 6054.98 
5979.87 5258.08 6011.75 
5782.75 5174.62 6166.99 
6019.35 5759.14 6153.4 
5964.98 5648.08 6128.28 
6023.14 5608.43 6129.55 
5807.73 5356.41 6170.44 
6038.33 5306.39 6033.89 
5955.33 5258.48 6036.85 
5926.87 5173.4 6078.23 
5948.55 5476.98 6139.91 
6122.81 5614.51 6128.3 
6786.47 3811.56 5697.22 
6170.6 3803.95 5720.49 
6730.37 3801.13 5691.97 
6748.63 3808.22 5668.47 
6750.85 3790.54 5677.52 
6808.84 3788.36 5670.71 
6260.8 3737.51 5648.71 
6728.14 3713.43 5683 
6731.88 3712.18 5659.19 
6571.34 3318.65 5608.84 
6571.34 3318.65 5608.84 
6703.1 3263.89 5549.83 
6643.13 3248.34 5560.64 
6793.85 3237.52 5519.82 
6634.77 3759.4 5683.09 
6804.74 3813.42 5673.66 
6634.77 3746.89 5683.06 
6242.23 3489.39 5788.89 
6684.99 4411.91 5456.3 
6288.28 4476.14 5950 
6335.9 4454.03 5940.03 
6220.26 4417.02 5973.56 
6286.44 4290.46 5961.61 
6263.97 4230.18 5988.4 
6263.97 4230.18 5988.4 
6472.19 4189.45 5899.41 
6751.22 3899.23 5698.36 
6267.73 4474.21 5964.65 
6294.27 4464.49 5935.13 
6209.73 4459.75 5971.05 
6209.73 4459.75 5971.05 
6215.73 4443.94 5956.15 
6189.17 4442.18 5985.78 
6228.55 4423.26 5981.89 
6280.06 4395.85 5955.84 
6166.75 4387.15 6012.19 
6218.27 4358.65 5986.13 
6249.44 4357.57 5988.13 
6257.63 4281.29 5982.42 
6268.12 4240.6 5985.2 
6288.61 4229.96 5970.93 
6268.08 4219.73 5985.49 
6385.48 4220.08 5926.15 
6290.49 4218.45 5959.03 
6571.32 4217.19 5863.13 
6387.71 4208.73 5935.1 
6299.03 4199.79 5974.26 
6299.03 4199.79 5974.26 
6464 4196.84 5905.17 
6373.17 4184.68 5934.84 
6383.62 4174.28 5937.99 
6395.63 4169.78 5908.07 
6395.63 4169.78 5908.07 
6342.22 4159.77 5946.17 
6538.15 4150.46 5865.52 
6317.01 4139.83 5929.67 
6538.13 4137.85 5865.65 
6314.5 4113.42 5899.38 
6551.65 4068.4 5803.01 
6679.06 4039.38 5725.68 
6676.83 4008.01 5716.77 
6676.83 4008.01 5716.77 
6173.05 3992.24 5880.51 
6730.71 3978.67 5712.94 
6730.71 3978.67 5712.94 
6219.49 3915.2 5794.45 
6643.33 3900.37 5698.12 
6729.99 3821.81 5671.17 
6243.1 4479.63 5982.02 
6308.82 4437.37 5935.38 
6308.82 4437.37 5935.38 
6176.86 4423.48 5994.4 
6323.58 4420.74 5948.78 
6340 4414.36 5937.15 
6230.46 4409.56 5969.8 
6265.87 4404.42 5976.42 
6170.54 4386.89 5988.31 
6191.08 4382.55 5973.72 
6233.01 4379.6 5999.73 
6263.64 4363.61 5967.51 
6265.88 4359.53 5976.36 
6232.68 4357.47 5978.81 
6207.84 4337.76 5983 
6207.84 4337.76 5983 
6299.04 4308.36 5974.15 
6255.42 4260.32 5973.36 
6615.11 4241.27 5877.32 
6571.65 4234.1 5884.19 
6600.58 4228.73 5876.98 
6400.05 4227.38 5926.24 
6451.71 4212.57 5913.7 
6319.8 4195.52 5972.76 
6342.53 4186.05 5967.27 
6327.68 4155.57 5945.95 
6744.41 4143.22 5788.01 
6758.58 4124.23 5767.39 
6803.56 4098.71 5727.52 
6570.27 4097.58 5800.43 
6570.27 4097.58 5800.43 
6741.82 4093.88 5758.13 
6227.4 4081.2 5905.53 
6805.45 4076.69 5715.51 
6175.9 4077.28 5931.5 
6175.9 4077.28 5931.5 
6144.72 4068.99 5929.61 
6144.72 4068.99 5929.61 
6239.93 4064.47 5910.05 
6444.4 4061.57 5844.67 
6183.81 4051.96 5904.6 
6183.81 4051.96 5904.6 
6580.03 4038.76 5761.6 
6700.12 4039.5 5745.3 
6807.32 4034.84 5703.54 
6179.37 4031.96 5886.67 
6161.05 4022.78 5910.17 
6590.12 4016.69 5743.82 
6142.2 4016.49 5899.58 
6249.37 4001.25 5850.43 
6205.91 3980.51 5857.1 
6205.91 3980.51 5857.1 
6625.04 3978.82 5721.74 
6625.04 3978.82 5721.74 
6335.61 3978.74 5789.11 
6471.79 3973.94 5740.39 
6705.75 3966.12 5709.56 
6147.55 3960.62 5842.82 
6261.38 3943.57 5820.59 
6747.11 3931.62 5701.31 
6747.11 3931.62 5701.31 
6366.11 3909.41 5749.04 
6778.03 3898.14 5689.93 
6674.25 3896.08 5686.81 
6705.4 3892.9 5688.61 
6805.09 3847 5694.64 
6356.1 4467.24 5904.48 
6381.38 4392.34 5929 
6232.98 4334.66 5999.97 
6232.98 4334.66 5999.97 
6237.09 4288.77 5996.99 
6385.77 4279.79 5947.4 
6311.37 4267.57 5965.33 
6472.29 4227.04 5898.83 
6241.2 4221.88 5994.06 
6241.2 4221.88 5994.06 
6410.6 4202.46 5943.22 
6262.03 4188.56 6000.69 
6538.78 4187.35 5907.74 
6691.08 4173.86 5825.97 
6761.15 4169.39 5797.38 
6409.77 4143.48 5887.76 
6483.96 4138.89 5847.93 
6686.59 4136.1 5808.15 
6538.04 4113.92 5866.23 
6479.79 4101.35 5851.3 
6776.18 4070.38 5701.77 
6351.31 4068.14 5865.69 
6222.96 4047.62 5887.51 
6326.16 4047.16 5848.83 
6429.53 4042.58 5823.41 
6593.87 3966.32 5720 
6601.72 3932.73 5693.33 
6498.28 3926.68 5711 
6494.53 3895.64 5734.82 
6418.87 4406.96 5936.97 
6211.94 4372.18 5980.06 
6211.94 4372.18 5980.06 
6356.43 4354.75 5925.46 
6435.3 4340.02 5925.26 
6398.14 4279.74 5938.32 
6203.72 4259.49 5985.96 
6468.46 4239.81 5923.13 
6332.1 4229.81 5964.08 
6806.5 4167.05 5778.38 
6269.98 4117.3 5973.5 
6550.12 4117.76 5835.78 
6277.54 4114.72 5925.75 
6661.11 4100.37 5770.29 
6511.6 4016.98 5765.17 
6544.32 3966.53 5733.89 
6659.74 3965.95 5686.46 
6568.6 3918.16 5695.5 
6159.27 3917.36 5792.01 
6254.22 3898.19 5759.23 
6692.87 3834.54 5684.28 
6692.87 3834.54 5684.28 
6563.81 3830.16 5656.59 
6219.83 4430.35 5953.32 
6427.41 4411.29 5952.18 
6162.95 4333.09 6036.1 
6191.09 4259.35 5973.68 
6724.24 4182.19 5823.62 
6562.74 4130.42 5848.24 
6277.22 4101.99 5904.77 
6553.52 4058.89 5791.14 
6495.2 4027.53 5776.75 
6792.79 3974.34 5703.35 
6577.12 3907.86 5710.71 
6271.16 3835.71 5781.89 
6655.98 3922.4 5710.37 
6444.17 4484.46 5961.44 
6510.75 4430.17 5969.77 
6432.97 3818.83 5778.52 
6609.79 4392.18 5934.28 
6345.09 4242.67 5996.98 
7404.99 3556.87 5484.71 
7404.99 3556.87 5484.71 
7311.7 3483.93 5484.88 
7311.7 3483.93 5484.88 
7313.54 3454.66 5473.08 
7313.54 3454.66 5473.08 
7472.95 3436.71 5460.16 
7160.67 3416.44 5505.19 
7129.54 3405 5503.46 
7327.69 3405.53 5452.38 
7340.22 3405.47 5456.62 
7452.52 3405.58 5474.5 
7050.72 3346.69 5504.1 
7355.1 3308.72 5477.92 
6979.42 3201.46 5456.77 
6979.42 3201.46 5456.77 
7247.66 3161.93 5498.85 
7370.03 3570.54 5498.89 
7388.6 3569.47 5496.49 
7309.08 3402.4 5455.02 
7336.11 3374.23 5459.59 
7417.9 3363.11 5509.8 
7417.9 3363.11 5509.8 
7359.21 3343.08 5474.88 
7240.35 3323.1 5437.87 
7240.35 3323.1 5437.87 
7253.24 3308.65 5463.09 
7253.24 3308.65 5463.09 
7367.77 3290.05 5490.04 
6961.52 3261.23 5501.28 
7202 3168.24 5496.96 
7390.5 3538.09 5484.3 
7295.31 3475.71 5496.64 
7229.18 3473.82 5509.4 
7427.24 3473.12 5449.89 
7456.68 3467.06 5471.13 
7431.3 3452.25 5447.16 
7402.77 3329.53 5475.62 
7402.77 3329.53 5475.62 
7294.93 3298.32 5475.75 
7294.93 3298.32 5475.75 
7278.19 3252.38 5466.43 
7253.61 3396.38 5484.01 
7373.32 3498.23 5454.42 
7220.23 3728.9 5590.01 
7209.87 3652.77 5586.38 
7232.74 3776.87 5594.41 
7259.57 3730.89 5585.78 
7203.53 3701.73 5580.4 
7239.07 3692.47 5600.48 
7309.15 3652.57 5571.33 
7298.3 3637.77 5547.55 
7366.31 3591.6 5522.75 
7326.82 3574.87 5519.23 
7168.1 3564.04 5574.11 
7188.59 3553.48 5559.49 
7295.69 3553.05 5517.59 
7177.44 3466.57 5514.37 
7402.3 3817.1 5563.29 
7402.3 3817.1 5563.29 
7332.06 3814.19 5579.02 
7276.34 3813.37 5594.94 
7428.71 3801.2 5533.9 
7416.42 3764.79 5542.72 
7416.42 3764.79 5542.72 
7230.87 3716.49 5606.35 
7191.57 3710.34 5610.31 
7028.34 3702.47 5647.11 
7255.1 3695.28 5567.7 
7340.26 3659.82 5573.13 
7152.09 3630.03 5606.67 
7222.11 3625.59 5577.97 
6827.47 3605.79 5668.06 
7378.6 3595.7 5514.01 
7172.2 3575.48 5571.18 
7244.3 3573.08 5543.64 
7234.25 3555.52 5561.45 
6895.51 3546.08 5643.63 
6895.51 3546.08 5643.63 
6953.26 3537.53 5623.64 
6953.26 3537.53 5623.64 
6903.71 3529.33 5637.73 
7245.79 3496.71 5510.77 
7054.07 3487.01 5575.77 
7054.07 3487.01 5575.77 
7059.66 3485.67 5540.04 
7060.25 3484.86 5574.1 
7080.74 3474.3 5559.49 
7129.91 3469.82 5524.4 
6920.9 3347.14 5551.38 
7167 3175.64 5511.28 
7436.91 3794.88 5528.05 
7185.21 3791.64 5604.42 
7296.44 3759.85 5559.37 
7197.52 3754 5595.57 
7168.53 3739.4 5594.7 
7358.43 3728.47 5549.99 
7329.41 3690.88 5549.33 
7143.53 3687.23 5591.54 
7217.98 3687.13 5581.07 
6912.99 3675.83 5694.69 
7073.66 3670.93 5628.02 
7238.73 3653.69 5579.3 
7078.47 3640.03 5667.08 
7317.16 3570.01 5557.85 
6924.91 3567.11 5665.07 
7113.89 3559.76 5557.05 
7283.39 3538.49 5526.38 
7258.46 3513.49 5522.83 
6940.6 3510.35 5611.46 
6897.81 3324.08 5536.09 
7404.53 3801.55 5572.33 
7404.53 3801.55 5572.33 
7247.3 3762.25 5594.44 
7247.3 3762.25 5594.44 
7288.26 3701.52 5565.19 
7424.6 3678.19 5536.93 
7177.05 3658.22 5610.06 
7114.98 3639.59 5619.89 
7329.1 3619.8 5527.94 
6982.53 3614.79 5637.33 
7035.81 3553.94 5599.33 
7191.95 3453.01 5514.68 
7210.19 3704.06 5607.65 
7378.95 3636.54 5535.06 
6982.88 3635.83 5658.29 
7056.89 3551.98 5618.82 
7056.89 3551.98 5618.82 
7146.29 3521.86 5512.79 
7146.29 3521.86 5512.79 
7109.42 3405.3 5539.03 
7291.6 3229.86 5520.51 
6921.17 3780.12 5688.96 
6859.1 3988.88 5698.55 
6901.05 4136.15 5724.33 
7027.2 4123.34 5700.88 
7027.2 4123.34 5700.88 
6812.1 4119.73 5742.75 
6830.74 4115.52 5740.02 
6830.74 4115.52 5740.02 
7261.84 3907.21 5594.51 
7230.96 3897.94 5605.74 
6811.42 3889.84 5700.71 
6811.42 3889.84 5700.71 
7221.23 4406.21 5644.76 
7415.34 4396.13 5596.4 
7379.72 4392.88 5576.81 
7297.2 4380.71 5601.24 
7231.66 4378.08 5647.98 
7316.43 4288.16 5632.58 
7246.18 4249.8 5648.22 
7373.76 4243.93 5591.74 
7415.34 4166.73 5596.45 
6866.36 4145.91 5759.64 
7049.77 4100.17 5687.51 
7020.86 4089.89 5694.81 
6828.19 4071.42 5709.84 
7103.43 3990.48 5670.49 
7155.07 3967.34 5657.49 
7179.65 3965.09 5640 
7179.65 3965.09 5640 
7458.15 3964.05 5555.27 
7361.11 3960.18 5579.48 
7004.1 3958.38 5685.56 
7305 3925.8 5574.55 
7059.83 3906 5669.81 
7300.91 3888.29 5577.45 
7257.75 3879.08 5597.46 
6855.71 4141.66 5743.38 
7458.15 4124.62 5555.25 
6884.6 4037.22 5736.28 
6917.83 4020.49 5733.47 
7132.35 3986.17 5663.09 
7107.52 3957.07 5667.62 
7082.62 3927.85 5663.85 
7161.03 3927.55 5642.65 
7156.5 3881.51 5625.03 
7338.77 4162.74 5606.06 
7454.05 4112.12 5558.2 
7029.07 4103.4 5688.95 
6880.51 4045.54 5739.23 
6880.51 4045.54 5739.23 
6904.78 3947.13 5700.61 
6863.19 3903.31 5695.74 
7193.81 3904.4 5619.32 
7111.29 3873.41 5643.49 
6829.7 3871.85 5677.05 
6859.13 3853.31 5698.39 
7358.86 3832.89 5570.63 
7417.2 4162.45 5584.47 
7417.2 4162.45 5584.47 
6863.18 3982.62 5695.72 
7267.77 3966.52 5579.86 
6921.53 3949.29 5709.88 
7264.05 3887.51 5603.7 
6913.34 3878.41 5715.62 
7102.7 3856.59 5628.55 
7362.96 3851.65 5567.69 
7234.63 3820.56 5582.27 
7416.8 3895.33 5563.69 
6725.76 5088.54 5790.66 
6578.82 5030.61 5815.46 
6246.93 4641.18 5957.85 
6244.69 4582.62 5948.99 
6201.51 4497.39 5976.87 
6319.45 4496.98 5951.86 
6228.03 4495 5947.51 
6657.34 5138.77 5794.17 
6547.88 5080.83 5826.83 
6713.11 5080.03 5778.46 
6762.68 5077.78 5764.42 
6762.68 5077.78 5764.42 
6690.73 5036.55 5804.98 
6762.7 5025.62 5764.31 
6193.28 4514.19 5982.79 
6308.78 4513.57 5935.53 
6263.33 4511.61 5946.35 
6789.74 5145.55 5769.03 
6624.56 5098.38 5817.28 
6707.15 5143.86 5793.14 
6669.65 4981.1 5785.42 
6669.65 4981.1 5785.42 
6335.92 4594.97 5939.91 
6364.64 4515.41 5919.65 
6364.64 4515.41 5919.65 
6694.47 5129.11 5781.11 
6277.86 4607.65 5946.72 
6277.86 4607.65 5946.72 
6215.73 4572.34 5956.1 
6373.18 4519.75 5934.77 
6394.31 4534.66 5962.54 
6306.93 5419.8 5947.16 
6457.8 5791.44 6036.68 
6457.8 5791.44 6036.68 
6289.58 5755.06 6033.81 
6270.92 5742.5 6036.47 
6270.92 5742.5 6036.47 
6347.33 5713.83 6006 
6359.6 5710.6 5997.51 
6753.4 5661.48 5953.9 
6753.4 5661.48 5953.9 
6386.48 5645.72 5988.91 
6641.12 5603.06 5943.45 
6211.61 5495.2 5959.04 
6269.97 5466.06 5973.42 
6286.4 5438.77 5961.76 
6286.4 5438.77 5961.76 
6296.5 5426.01 5944 
6325.46 5408.11 5936.84 
6704.9 5181.32 5784.29 
6528.51 5811.24 6042.1 
6263.06 5797.25 6063.19 
6341.95 5790.87 6063.08 
6272.51 5727.48 6003.45 
6324.88 5719.45 6032.65 
6804.86 5715.36 5927.93 
6442.63 5659.29 5994.26 
6575.08 5650.39 5969.34 
6798.53 5630.73 5921.81 
6326.44 5627.1 5999.73 
6201.82 5594.91 5997.88 
6201.82 5594.91 5997.88 
6454.25 5583.43 5943.68 
6413.23 5575.47 5972.69 
6678.26 5574.6 5930.47 
6644.87 5572.47 5919.65 
6245.33 5557.13 5990.89 
6530.93 5519.53 5934.28 
6249.44 5514.28 5988.02 
6263.97 5497.61 5988.27 
6327.69 5444.73 5945.77 
6348.53 5444.81 5952.29 
6251.33 5443.14 5975.98 
6232.34 5430.36 5957.87 
6290.19 5393.56 5937.84 
6339.98 5389.29 5937.24 
6323.58 5386.3 5948.68 
6302.48 5377.79 5929.2 
6808.72 5287.7 5787.35 
6729.88 5235.63 5787.66 
6675.98 5162.73 5791.47 
6304.98 5805.83 6089.29 
6392.13 5807.77 6083.18 
6784.74 5759.68 5963.21 
6722.91 5758.15 5994.23 
6324.91 5746.57 6032.46 
6738.63 5728.24 5940.57 
6266.54 5696.38 6018.1 
6734.17 5688.24 5922.58 
6788.42 5686.36 5939.77 
6514.54 5647.01 5945.79 
6568.55 5584.46 5950.01 
6490.25 5551.52 5984.28 
6506.3 5521.86 5951.83 
6245.31 5480.92 5991.06 
6245.31 5480.92 5991.06 
6182.57 5476.4 5958.25 
6269.65 5413.59 5952.41 
6147.79 5804.61 6131.7 
6702.4 5793.85 6008.74 
6428.08 5706.28 5994.03 
6428.08 5706.28 5994.03 
6299.04 5656.08 5974.01 
6286.73 5562.24 5982.7 
6622.1 5558.96 5925.4 
6622.1 5558.96 5925.4 
6564.42 5553.17 5953.03 
6273.75 5467.83 5949.55 
6174.33 5466.06 5964.28 
6261.12 5409.22 5937.21 
6261.12 5409.22 5937.21 
6360.53 5404.75 5922.52 
6332.75 5691.92 6005.95 
6490.54 5683.34 6005.51 
6282.62 5654.15 5985.58 
6742.04 5631.52 5895.68 
6518.62 5584.37 5943.04 
6319.45 5440.64 5951.75 
6153.78 5420.32 5978.93 
6345.08 5587.41 5997.16 
6553.13 5737.9 6024.67 
6553.13 5737.9 6024.67 
6386.83 5721.21 6009.83 
6386.83 5721.21 6009.83 
6452.39 5453.1 5955.47 
6773.33 5458.72 5780.67 
6773.33 5458.72 5780.67 
7474.51 4494.62 5543.59 
7474.51 4494.62 5543.59 
6911.46 5137.64 5727.51 
7308.24 5111.03 5638.29 
7128.61 5082.62 5686.94 
7357.77 5072.26 5624.21 
7273.01 5038.13 5639.59 
7273.01 5038.13 5639.59 
7186.36 4998.93 5666.93 
7378.64 4994.12 5630.48 
7378.64 4994.12 5630.48 
7349.58 4836.65 5630.03 
7448.48 4822.58 5593.93 
7448.48 4822.58 5593.93 
7375.63 4738.05 5579.68 
7324.24 4722.7 5605.76 
7324.24 4722.7 5605.76 
7297.19 4695.62 5601.23 
7377.87 4629.7 5588.7 
7472.67 4599.01 5555.51 
7435.43 4565.7 5560.88 
7435.43 4565.7 5560.88 
7326.48 4499.65 5614.76 
7363.34 4486.84 5588.47 
6868.64 5124.59 5768.28 
6905.5 5111.76 5742.28 
6872.39 5078.42 5744.41 
7306.37 5076.75 5650.33 
6827.02 5064.12 5763.64 
7359.23 4700.64 5591.45 
7288.99 4559.08 5607.15 
7371.52 4527.46 5582.78 
7413.1 4744.29 5587.39 
7413.1 4744.29 5587.39 
7359.25 4642.24 5591.38 
7359.25 4642.24 5591.38 
6810.26 5128.68 5754.35 
7013.39 5120.01 5742.46 
7053.52 5047.96 5663.42 
7336.18 5549.29 5809.6 
7336.18 5549.29 5809.6 
6909.99 5819.62 6007.13 
7261.33 5810.59 5915.83 
7437.33 5805.9 5890.99 
7325.07 5748.53 5880.86 
7364.42 5746.29 5876.69 
6925.29 5730.89 5932.72 
7457.44 5708.29 5855.35 
7436.35 5686.21 5835.8 
7417.75 5668.49 5838.29 
7231.25 5659.65 5860.55 
7413.59 5639.34 5841.64 
7279.21 5637.77 5871.28 
7435.93 5633.77 5815.12 
7111.06 5626.48 5869.11 
7371.85 5608.92 5828.92 
7348.89 5577.6 5821.5 
7112.59 5550.88 5835.98 
7246.92 5526.39 5806.85 
7451.8 5491.23 5774.44 
7442.97 5479.48 5746.35 
7012.24 5471.25 5796.36 
7453.65 5468.11 5762.53 
7018.25 5389.67 5781.22 
6990.33 5271.05 5726.93 
7015.26 5243.96 5730.47 
6961.24 5163.61 5726.59 
7358.46 5818.47 5891.6 
7441.42 5818.33 5888.03 
7457.81 5806.67 5876.33 
7476.47 5805.59 5873.44 
7205.21 5798.09 5910.77 
7443.3 5788.93 5875.96 
7333.26 5785.99 5875.05 
6812.24 5788.37 5997.04 
6822.54 5767.31 5992.4 
7043.36 5756.6 5914.7 
6861.34 5750.09 5954.18 
7341.82 5748.65 5890.35 
7347.42 5730.39 5854.34 
7109.54 5719.8 5902.18 
7209.29 5719.78 5907.88 
7290.03 5699.67 5895.32 
7202.98 5698.81 5901.63 
7336.98 5681.31 5851.24 
7169.19 5679.7 5870.15 
6903.9 5656.32 5891.92 
7134.18 5650.67 5884.38 
7264.7 5647.15 5870.88 
7324.31 5645.67 5838.96 
7386.4 5641.25 5829.13 
7467.09 5634.72 5816.6 
7467.09 5634.72 5816.6 
7044.86 5634.04 5881.79 
7251.78 5630.21 5845.72 
7204.45 5624.27 5868.91 
7380.06 5623.44 5823.01 
7057.17 5620.36 5872.99 
7347.03 5617.43 5833.45 
7347.03 5617.43 5833.45 
7388.25 5604.58 5817.21 
7388.25 5604.58 5817.21 
7214.53 5598.99 5851 
6976.44 5595.58 5885.39 
7154.29 5592.8 5848.91 
7325.78 5578.45 5806.17 
7325.78 5578.45 5806.17 
7224.58 5569.53 5833.28 
7270.04 5556.85 5822.08 
7431.47 5543.79 5796.94 
7445.61 5526.81 5776.26 
7466.72 5526.97 5795.65 
7406.11 5496.52 5772.67 
7432.93 5493.26 5764.13 
7178.15 5478.25 5789.46 
7229.79 5424.77 5776.56 
7049.38 5408.38 5783.05 
7260.34 5403.5 5744.08 
7260.34 5403.5 5744.08 
7030.77 5402.15 5785.6 
7059.8 5393.82 5786.33 
6964.55 5390.94 5798.48 
6964.55 5390.94 5798.48 
7076.21 5385.31 5774.55 
7384.49 5355.04 5724.38 
7000.73 5249.21 5730.29 
6969.48 5204.22 5720.44 
6931.96 5194.84 5712.92 
7438.45 5190.89 5611.6 
6921.9 5170.01 5730.68 
6948.59 5169.72 5714.31 
6946.98 5813.99 5980.41 
7227.92 5783.38 5905.26 
7368.87 5776.8 5894.96 
6813.77 5740.94 5964 
6925.29 5706.9 5932.74 
6925.29 5706.9 5932.74 
7173.69 5703.92 5887.95 
7007.99 5668.86 5907.91 
7202.53 5655.74 5881.19 
7446.24 5587.66 5810.21 
7073.51 5551.3 5861.69 
7123.03 5534.22 5839.11 
7387.46 5520.54 5775.42 
7329.55 5483.19 5781.92 
7329.55 5483.19 5781.92 
7456.74 5417.39 5704.68 
7361.89 5405.42 5738.01 
6955.31 5309.84 5741.21 
6955.31 5309.84 5741.21 
7058.71 5274.05 5723.42 
6984 5190.67 5720.79 
6984 5190.67 5720.79 
6938.36 5769.97 5965.65 
7020.6 5742.08 5920.42 
7364.43 5713.93 5876.71 
7417.67 5698.77 5838.76 
7417.67 5698.77 5838.76 
7136.4 5697.77 5893.54 
7136.4 5697.77 5893.54 
6970.81 5687.92 5921.23 
7467.5 5681.91 5837.42 
7467.5 5681.91 5837.42 
7098.77 5668.34 5877.82 
7359.97 5663.56 5858.5 
6833.8 5656.72 5920.68 
6833.8 5656.72 5920.68 
7023.68 5609.65 5854.14 
7181.12 5603.13 5840.42 
6969.72 5559.74 5858.46 
7156.14 5559.23 5837.02 
7023.62 5555.41 5854.6 
7023.62 5555.41 5854.6 
7147.55 5500.59 5822.05 
7147.55 5500.59 5822.05 
7080.28 5460.39 5771.79 
7055.69 5333.34 5789.31 
7447.42 5308.17 5647.57 
6926 5249.28 5727.74 
7066.91 5226.01 5717.59 
6847.87 5814.64 6016.77 
7464.16 5766.07 5882.37 
7376.72 5747.19 5867.9 
7073.95 5605.87 5882.2 
7014.11 5458.58 5784.42 
7084.76 5418.89 5789.73 
6931.16 5375.25 5787.73 
7001.08 5351.71 5751.24 
7067.64 5335.02 5759.51 
7067.64 5335.02 5759.51 
7313.1 5362.29 5793.96 
7121.86 5333.09 5776.64 
6872.36 5257.86 5744.7 
7265.06 5701.74 5891.94 
6923.66 5496.93 5835.62 
6923.66 5496.93 5835.62 
7122.62 5508.9 5818.45 
7122.62 5508.9 5818.45 
6873.04 5475.38 5786.65 
7303.79 5273.92 5736.91 
4966.62 3808.7 6354.19 
5238.99 3793.51 6202.56 
4966.38 3791.8 6333.02 
4994.86 3756.78 6284.16 
5062.71 3738.49 6225.56 
4907.4 3690.88 6268.71 
4954.43 3656.87 6203.48 
4933.56 3618.14 6197.13 
4904.57 3607.81 6203.84 
4869.18 3586.85 6197.02 
5102.67 3785.79 6263.96 
4906 3759.3 6322.59 
5158.12 3758.16 6214.22 
4896.86 3680.34 6251.56 
5012.53 3669.26 6197.28 
5085.89 3759.56 6254.85 
4940.89 3720.3 6287.31 
5126.58 3712.95 6183.5 
5127.36 3765.76 6246.63 
4875.31 3798.42 6362.4 
4920.04 3682.62 6280.82 
5428.61 3932.66 6247.15 
5338.99 4252.42 6541.14 
5266.04 4176.01 6525.97 
5277.3 4041.25 6433.06 
5301.73 4014.73 6394.62 
5283.1 4004.3 6396.94 
5283.1 4004.3 6396.94 
5373.84 4003.71 6346.53 
5381.81 3990.89 6319.58 
5305.04 3953.45 6328.51 
5320.13 3852.04 6211.78 
5380.94 4333.12 6567.37 
5380.94 4300.71 6567.41 
5274.83 4290.35 6562.18 
5365.92 4264.87 6532.58 
5440.53 4254.15 6514.56 
5255.6 4229.28 6522.77 
5303.29 4154.88 6513.17 
5265.79 4142.32 6504.78 
5404.53 4127.15 6465.77 
5221.29 4032.96 6440.77 
5343.12 4029.14 6378.78 
5427.84 4022.41 6343.05 
5235.3 3975.07 6399.09 
4967.14 3849.89 6396.19 
5372.69 4395.93 6573.26 
5351.65 4297.51 6553.33 
5405.63 4291.11 6550 
5339 4232.54 6541.02 
5438.32 4223.7 6505.54 
5443.19 3928.53 6247.3 
5443.19 3928.53 6247.3 
5339.8 3908.08 6285.74 
4909.22 3867.84 6415.66 
5024.98 3846.37 6369.03 
5339.28 4354.07 6562.06 
5339.28 4354.07 6562.06 
5297.54 4255.64 6549.1 
5471.17 4175.25 6474.56 
5143.37 4117.5 6524.73 
5376.84 3882.71 6259.54 
5033.27 3854.71 6362.93 
5392.46 4177.62 6495.51 
5210.01 4155.17 6533.75 
5441.32 4116.22 6418.44 
5441.32 4116.22 6418.44 
5033.52 3871.64 6384.05 
5235.96 3874.81 6289.54 
5169.27 3883.01 6273.04 
5783.95 4158.11 6251.11 
5783.95 4158.11 6251.11 
5742.35 4139.31 6245.71 
5673.99 4110.25 6262.53 
5605.21 4035.95 6244.51 
5569.59 4000.31 6224.47 
5544.34 3952.01 6199.84 
5493.97 4273.45 6468.99 
5730.58 4185.82 6296.65 
5847.85 4181.77 6216.38 
5689.42 4177.76 6325.84 
5744.81 4173.07 6276.02 
5680.89 4148.36 6310.67 
5480.47 4111.7 6393.65 
5712.93 4101.5 6224.24 
5712.93 4101.5 6224.24 
5640.32 4069.23 6230.3 
5625.76 4049.38 6230.04 
5588.26 4011.76 6221.73 
5519.64 3953.22 6217.38 
5664.74 4317.96 6343.31 
5639.86 4232.37 6347.46 
5631.04 4131.7 6311.22 
5631.04 4131.7 6311.22 
5559.74 4028.91 6263.23 
5484.36 3944.94 6218.05 
5677.08 4265.63 6334.58 
5813.05 4206.16 6251.69 
5635.75 4178.08 6350.3 
5606.06 4165.1 6307.65 
5817.46 4214.72 6269.81 
5787.77 4159.95 6227.16 
5437.82 4747.82 6622.67 
5246.27 5107.6 6444.32 
5412.49 5096.92 6438.78 
5323.9 5019.35 6498.47 
5344.76 5019.43 6505.07 
5328.55 4912.15 6537.89 
5231.68 4832.5 6603.44 
5416.65 4814.44 6595.26 
5427.06 4806.11 6598.63 
5288.2 4776.24 6630.07 
5448.18 4755.03 6618.21 
5396.63 4739.82 6651.87 
5419.41 4677 6646.44 
5360.13 5150.98 6409.24 
5114.08 5135.83 6510.57 
5436.92 5134.07 6400.21 
5231.72 5115.99 6443.95 
5393.79 5103.22 6441.56 
5149.14 5075.86 6488.83 
5207.1 5051.57 6469.01 
5388.06 5048.27 6477.32 
5240.51 5046.39 6480.22 
5257.27 5036.06 6489.56 
5327.75 5033.7 6474.56 
5305.22 5019.36 6501.19 
5274.01 5017.35 6498.99 
5310.17 4915.55 6561.32 
5472.31 4851.59 6558.69 
5470.1 4832.64 6549.65 
5445.78 4810.27 6595.81 
5244.32 4805.46 6615.71 
5309.07 4779.46 6636.54 
5435.89 4763.67 6634.75 
5466.85 4742.44 6615.66 
5466.85 4742.44 6615.66 
5284.62 4734.95 6675.11 
5284.62 4734.95 6675.11 
5221.57 5099.47 6461.7 
5221.57 5099.47 6461.7 
5305 5064.08 6479.83 
5301.93 4889.5 6567.23 
5456.34 4776.92 6612.81 
5456.34 4776.92 6612.81 
5377.87 4746.14 6654.91 
5378.26 4694.08 6675.29 
5279.54 5115.96 6441.83 
5367.01 5070.04 6457.41 
5421.01 5065.73 6453.95 
5434.49 4847.12 6529.43 
5373.81 4641.58 6657.46 
5425.12 5053.16 6451.1 
5301.65 4985.44 6546.22 
5357.06 4792.05 6647.99 
5362.27 4638.24 6729.54 
5345.56 5096.62 6408.98 
5437.75 4971.75 6463.38 
5365.57 4534.94 6663.25 
5440.77 5500.63 6376.16 
5438.57 5340.56 6367.13 
5130.77 5255.94 6512.18 
5401.48 5173.7 6393.57 
5296.27 5792.44 6451.28 
4950.46 5728.41 6559.33 
4991.96 5661.36 6551.15 
5285.86 5590.62 6447.89 
5461.4 5456.53 6361.3 
5461.4 5456.53 6361.3 
5079.41 5267.24 6567.06 
5139.25 5247.8 6527.59 
5322.8 5185.55 6414.34 
5354.39 5808.97 6444.99 
5075.05 5781.49 6548.75 
5165.9 5770.21 6498.05 
5263.31 5767.68 6474.65 
4873.87 5767.63 6589.22 
4836.59 5762.68 6601.91 
5279.5 5752.58 6441.96 
4867.81 5745.88 6604.16 
5459.41 5731.54 6373.67 
4964.98 5723.18 6559.88 
4979.3 5689.45 6539.09 
4847.04 5685.33 6605.07 
5424.28 5675.31 6387.92 
5424.28 5675.31 6387.92 
5302.74 5672.39 6470.99 
5331.31 5657.18 6429.49 
5356.03 5655.89 6411.99 
5388.96 5640.92 6388.72 
5388.96 5640.92 6388.72 
5424.29 5637.68 6387.86 
5430.6 5604.3 6394.07 
5382.94 5599.33 6403.56 
5407.82 5593.96 6399.54 
5436.37 5587.13 6358.08 
5327.43 5584.33 6453.64 
5331.31 5555.78 6429.55 
5364.24 5436.3 6406.3 
5395.48 5378.75 6408.28 
5416.05 5368.11 6393.74 
5463.25 5366.47 6349.76 
5358.23 5357.06 6421.04 
5393.08 5336.74 6385.82 
5393.08 5336.74 6385.82 
5172.21 5303.99 6504.3 
5089.6 5296.3 6549.16 
5291.87 5290.42 6433.21 
5180.45 5280.92 6498.47 
5151.63 5260.27 6518.78 
5069.02 5229.56 6563.54 
5122.76 5227.06 6539.26 
5459.4 5179.72 6373.81 
5362.33 5170.97 6418.21 
5112.13 5165.25 6522.69 
5430.63 5159.07 6393.92 
5317.31 5804.09 6471.24 
4969.42 5772.61 6577.71 
5304.69 5760.05 6458.89 
5403.44 5570.75 6381.32 
5403.44 5570.75 6381.32 
5370.3 5543.79 6391.2 
5341.19 5527.03 6390.73 
5452.89 5499.07 6346.05 
5428.13 5449.22 6363.92 
5428.13 5449.22 6363.92 
5093.74 5316.12 6546.19 
5139.5 5316.04 6548.68 
5234.46 5294.36 6495.12 
5275.64 5281.43 6466.05 
5205.17 5265.03 6480.99 
5093.46 5230.11 6525.21 
5006.48 5745.05 6551.73 
4861.24 5680.67 6576.96 
5387.04 5675.58 6400.68 
5469.29 5601.4 6334.72 
5428.13 5497.31 6363.95 
5295.71 5335.07 6409.29 
5139.52 5320.2 6548.51 
5420.16 5322.05 6390.91 
5420.16 5322.05 6390.91 
5229.8 5304.3 6455.98 
5333.24 5301.6 6417.5 
5370.3 5272.01 6391.36 
5081.11 5184.22 6533.89 
5015.01 5805.9 6566.71 
5085.23 5763.45 6530.82 
4935.98 5757.9 6566.56 
5362.33 5734.38 6418.2 
5362.33 5734.38 6418.2 
5349.97 5613.23 6426.96 
5349.97 5613.23 6426.96 
5370.01 5399.24 6370.3 
5225.95 5321.36 6479.93 
5068.75 5182.25 6542.59 
5157.06 5793.88 6621.14 
5468.98 5613.68 6313.93 
5311.35 5442.74 6334.53 
5262.2 5456.06 6390.59 
5103.48 5509.65 6326.64 
5638.24 4967.45 6380.34 
5793 4884.87 6308.76 
5657.96 5085.62 6302.46 
5540.6 5083.59 6382.83 
5520.56 4987.1 6439.71 
5533.24 4960.04 6451.75 
5520.89 4955.98 6460.43 
5562.27 4949.43 6444.58 
5706.78 4822.07 6377.12 
5719.1 4819.86 6368.54 
5745.88 4790.32 6352.52 
5860.75 4632.22 6241.61 
5694.57 5112 6247.77 
5534.57 5057.65 6397.78 
5602.5 5047.59 6352.75 
5602.5 5047.59 6352.75 
5631.34 5033.74 6332.09 
5771.91 5012.04 6280.81 
5854.38 4878.71 6235.78 
5711.19 4840.03 6395.23 
5662.08 4818.77 6451.37 
5474.5 4811.94 6567.86 
5731.48 4804.09 6359.66 
5672.23 4800.78 6433.56 
5729.55 4799 6371.64 
5737.79 4766.53 6365.81 
5787.07 4748.17 6323.06 
5610.6 4683.34 6484.89 
5951.32 4673.34 6191.34 
5571.32 4660.54 6502.26 
5920.22 4649.38 6188.84 
5624.55 4650.45 6443.24 
5581.47 4640.46 6484.33 
5598.24 4631.17 6493.73 
5790.88 4578.63 6299.19 
5790.88 4578.63 6299.19 
5638.68 5127.93 6263.29 
5590.19 5072.81 6361.21 
5862.23 5062.27 6209.35 
5680.88 5051.17 6310.71 
5557.32 5039.81 6392.41 
5673.24 4980.73 6358.55 
5693.78 4932.42 6344.27 
5682.07 4830.59 6394.71 
5800.97 4705.92 6281.71 
5780.44 4668.45 6296.02 
5780.44 4668.45 6296.02 
5481.12 4657.47 6594.96 
5606.06 5122.24 6307.65 
5598.42 5120.78 6355.48 
5495 5113.02 6394.1 
5495 5113.02 6394.1 
5870.49 5062.16 6203.37 
5796.91 4814.59 6284.26 
5883.15 4807.43 6215.55 
5493.46 4615.58 6586.33 
5768.69 4884.3 6346.77 
5603.69 4822.83 6436.63 
5719.11 4790.62 6368.53 
5731.46 4702.7 6359.68 
5837.71 4659.38 6234.27 
5717.66 5115.39 6263.26 
5651.63 5002.97 6296.45 
5932.49 4662.87 6180.53 
6116.5 5014.61 6260.22 
5745.14 5771.96 6296.74 
5740.42 5760.96 6257.69 
5776.03 5761.12 6277.8 
5776.03 5761.12 6277.8 
5920.16 5757.61 6189.1 
5488.43 5678.05 6366.67 
5818.47 5601.16 6194.61 
5705 5573.82 6250.96 
5645 5405.97 6269.38 
5555.88 5241.2 6287.25 
5762.3 5179.17 6189.15 
5708.4 5818.59 6343.99 
5951.66 5798.63 6212.08 
5761.77 5790.67 6298.52 
5491.2 5789.56 6417.77 
5963.99 5780.75 6203.37 
5726.45 5780.35 6299.47 
5789.98 5752.16 6235.99 
5711.61 5751.84 6278.17 
5802.31 5739.52 6227.32 
5903.41 5737.7 6179.79 
5777.32 5735.28 6223.86 
5500.76 5696.74 6358 
5740.13 5661.39 6236.65 
5802.01 5650.42 6206.33 
5851.85 5647.19 6205.72 
5851.85 5647.19 6205.72 
5678.11 5643.96 6259.48 
5870.22 5628.05 6182.11 
5480 5575.63 6359.15 
5822.58 5563.51 6191.73 
5535.63 5350.33 6322.62 
5572.65 5350 6296.54 
5516.94 5342.02 6325.36 
5762.32 5337.96 6189.04 
5553.99 5293.61 6299.04 
5496.08 5217.57 6318.88 
5533.41 5178.86 6313.69 
5550.15 5178.98 6323.18 
5607.68 5177.22 6274.6 
5700.87 5727.47 6254.03 
5655.76 5634.08 6293.35 
5775.11 5618.17 6214.89 
5754.71 5578.87 6236.68 
5539.71 5511.24 6319.88 
5647.5 5485.8 6299.42 
5704.98 5403.51 6251.11 
5552.09 5325.11 6310.96 
5712.35 5191.62 6182.13 
5825.38 5762.69 6242.74 
5568.55 5686.51 6299.3 
5672.08 5593.98 6274.35 
5742.03 5534.82 6224.72 
5742.03 5534.82 6224.72 
5544.11 5503.13 6338.03 
5490.35 5486.63 6354.67 
5799.79 5486.3 6197.42 
5581.64 5419.51 6346.18 
5531.81 5402.91 6346.44 
5486.05 5371.65 6344.12 
5630.76 5349.81 6290.04 
5589.32 5253.79 6298.13 
5680.9 5653.03 6310.52 
5544.69 5593.57 6380 
5680.61 5353.89 6289.52 
5622.51 5295.58 6295.97 
5502.7 5177.19 6345.99 
5568.26 5203.45 6278.29 
5562.23 5782.5 6444.67 
5867.63 5784.23 6290.1 
5874.32 5594.6 6179.21 
5650.16 5256.62 6191.44 
6248.24 5063.66 6180.08 
7744.66 838.369 5136.09 
7753.17 798.8 5151.56 
7765.48 798.812 5142.52 
7529.69 731.163 5165.51 
7717.86 605.13 5144.82 
7717.86 605.13 5144.82 
7726.07 546.743 5138.76 
7567.11 1120.78 5173.32 
7750.97 1113.39 5142.32 
7540.15 1094.76 5168.36 
7705.33 996.733 5140.73 
7603.96 979.048 5146.73 
7598.02 966.586 5161.62 
7598.02 966.586 5161.62 
7558.57 959.288 5158.08 
7546.7 947.913 5187.59 
7546.7 947.913 5187.59 
7627.01 945.757 5162.17 
7519.29 935.379 5162.25 
7519.28 899.962 5162.29 
7746.91 889.439 5145.05 
7759.14 881.104 5136.52 
7519.28 821.846 5162.31 
7717.86 821.73 5144.77 
7736.47 800.922 5142.01 
7736.47 800.922 5142.01 
7529.72 743.731 5165.34 
7521.54 721.853 5171.13 
7556.71 714.539 5170 
7568.98 712.474 5161.22 
7563.03 693.744 5176.15 
7746.88 683.242 5145.22 
7658.14 646.826 5163.62 
7647.71 635.359 5160.54 
7655.89 622.849 5154.68 
7599.83 614.526 5149.93 
7716.03 594.731 5156.62 
7682.67 575.976 5146.16 
7598.02 557.228 5161.64 
7577.55 555.153 5176.3 
7676.33 546.797 5140.12 
7595.79 544.758 5152.6 
7488.42 527.081 5173.63 
7620.69 525.986 5156.08 
7726.45 517.643 5159.76 
7715.38 507.182 5122.82 
7482.49 1143.75 5188.45 
7561.21 1141.66 5187.88 
7658.13 1139.47 5163.71 
7531.95 1078.1 5174.36 
7531.95 1078.1 5174.36 
7643.63 1046.78 5163.42 
7643.63 1046.78 5163.42 
7513.34 1038.54 5177.11 
7569 1032.21 5161.15 
7507.03 1017.68 5170.94 
7564.91 1013.47 5164.03 
7717.86 1009.22 5144.76 
7541.96 984.3 5156.74 
7541.96 984.3 5156.74 
7626.98 975.933 5162.4 
7521.53 968.708 5171.25 
7544.48 965.582 5178.53 
7655.9 966.507 5154.68 
7608.43 931.192 5164.78 
7482.48 922.925 5188.48 
7482.48 922.925 5188.48 
7513.35 916.642 5177.05 
7513.35 916.642 5177.05 
7687.16 863.472 5164.09 
7523.38 861.402 5159.36 
7563.05 832.256 5175.99 
7571.24 815.57 5170.12 
7571.24 815.57 5170.12 
7568.99 798.908 5161.16 
7529.7 796.847 5165.47 
7674.49 783.249 5152.04 
7674.49 783.249 5152.04 
7595.78 772.851 5152.62 
7748.72 759.241 5133.33 
7693.09 753.033 5149.29 
7693.08 718.659 5149.32 
7670.4 716.579 5154.94 
7649.55 693.667 5148.67 
7521.53 691.648 5171.2 
7622.95 666.625 5164.98 
7602.1 649.951 5158.72 
7742.78 634.296 5148.25 
7585.35 624.947 5149.46 
7697.14 577.995 5146.62 
7490.27 565.598 5161.83 
7670.4 564.533 5154.92 
7498.83 547.906 5176.88 
7746.88 527.009 5145.26 
7694.93 510.339 5137.47 
7672.64 508.296 5163.96 
7628.89 495.78 5150.13 
7598 492.669 5161.77 
7544.45 481.233 5178.68 
7687.17 481.21 5164.09 
7583.52 1122.82 5161.33 
7583.52 1122.82 5161.33 
7600.23 1079.12 5170.75 
7491.73 1051.94 5129.04 
7550.39 1031.16 5163.91 
7662.62 989.519 5181.62 
7649.55 945.755 5148.68 
7715.35 891.475 5122.97 
7715.35 891.475 5122.97 
7628.88 870.758 5150.22 
7628.88 870.758 5150.22 
7653.28 845.695 5124.63 
7496.2 816.578 5147.02 
7608.44 795.804 5164.73 
7724.23 702.021 5150.59 
7480.25 541.663 5179.46 
7554.1 531.173 5139.98 
7497 1102.11 5188.69 
7579.41 999.932 5164.29 
7649.17 912.359 5127.69 
7649.17 912.359 5127.69 
7628.87 908.247 5150.28 
7628.87 908.247 5150.28 
7616.21 904.04 5138.14 
7603.94 858.231 5146.88 
7596.56 856.269 5194.43 
7596.56 856.269 5194.43 
7587.59 495.796 5158.54 
7596.16 739.548 5173.55 
7596.16 739.548 5173.55 
7508.87 652.051 5159.09 
7508.87 652.051 5159.09 
7632.18 1045.6 5105.47 
7517.44 899.949 5174.16 
7579.8 1798.94 5185.24 
7579.8 1798.94 5185.24 
7693.5 1790.49 5170.14 
7716.83 1779.14 5198.35 
7619.23 1745.81 5188.92 
7492.52 1620.79 5170.65 
7687.17 1614.43 5163.97 
7697.17 1603.98 5146.45 
7678.97 1601.96 5170 
7528.26 1319.83 5198.07 
7511.48 1308.35 5189.09 
7509.66 1240.67 5200.74 
7492.91 1183.37 5191.56 
7708.07 1793.64 5169.91 
7598.01 1708.21 5161.68 
7577.56 1686.39 5176.24 
7716.02 1668.55 5156.66 
7693.48 1660.3 5170.21 
7644.03 1652.01 5184.2 
7745.06 1643.53 5157.03 
7664.47 1619.67 5169.68 
7618.84 1618.65 5167.98 
7569.39 1595.79 5182.02 
7689.39 1570.73 5173.11 
7705.75 1568.61 5161.45 
7658.13 1562.36 5163.67 
7664.47 1542.59 5169.68 
7736.86 1473.8 5162.92 
7682.67 1465.43 5146.18 
7750.96 1364.36 5142.35 
7689 1338.39 5152.18 
7557.12 1322.91 5190.78 
7581.65 1279.11 5173.34 
7583.89 1252.06 5182.3 
7542.59 1247.92 5190.63 
7525.99 1232.31 5189.32 
7525.99 1232.31 5189.32 
7492.51 1211.42 5170.78 
7527.85 1206.23 5177.34 
7647.72 1170.73 5160.49 
7647.72 1170.73 5160.49 
7603.95 1147.79 5146.87 
7728.67 1762.34 5168.9 
7588.37 1747.96 5200.24 
7608.41 1639.48 5164.9 
7492.5 1560.36 5170.84 
7724.59 1529.04 5171.77 
7695.34 1495.69 5158.28 
7501.48 1400.07 5206.59 
7740.93 1226.95 5160.14 
7575.71 1222.92 5188.12 
7740.55 1164.32 5139.19 
7740.55 1164.32 5139.19 
7682.67 1156.09 5146.16 
7674.9 1676.98 5172.77 
7766.3 1874.91 5184.16 
7567.24 2443.29 5289.44 
7572.83 2296.12 5253.43 
7549.71 2211.71 5238.45 
7582.42 2151.15 5215.12 
7758.09 2072.84 5190.17 
7755.88 2041.54 5181.03 
7530.47 2033.43 5207.21 
7689.79 2008.31 5193.98 
7483.26 1983.55 5230.18 
7718.67 1948.86 5186.48 
7658.55 1943.69 5184.4 
7491.04 1908.43 5203.58 
7658.52 1899.93 5184.58 
7491.05 1895.89 5203.51 
7557.5 1894.89 5211.67 
7598.4 1885.36 5182.49 
7583.5 1876.93 5161.35 
7553.42 1866.79 5214.57 
7667.08 1866.69 5199.72 
7569.36 1820.8 5182.22 
7583.6 2432.81 5277.83 
7550.49 2410.95 5280.2 
7702.05 2393.22 5293.64 
7678.71 2363.93 5265.44 
7659.71 2316.95 5247.19 
7570.95 2312.92 5265.52 
7591.41 2308.67 5250.96 
7614.34 2302.43 5258.35 
7614.34 2302.43 5258.35 
7566.47 2240.94 5247.6 
7717.21 2228.2 5219.39 
7574.65 2222.14 5241.74 
7591 2212.72 5230.16 
7683.85 2204.22 5208.77 
7532.73 2124.12 5216.11 
7577.95 2113.57 5197.11 
7704.31 2064.53 5194.17 
7693.87 2047.9 5191.09 
7547.08 2042.8 5208.54 
7499.62 2012.66 5218.57 
7737.26 1984.27 5183.78 
7741.35 1965.48 5180.89 
7654.45 1918.7 5187.41 
7538.9 1879.28 5214.4 
7645.86 1871.74 5172.41 
7612.91 1864.55 5182.78 
7695.72 1864.51 5179.23 
7594.32 1858.31 5185.36 
7594.32 1858.31 5185.36 
7707.98 1850.91 5170.44 
