ply
format ascii 1.0
element vertex 460
property float x
property float y
property float z
property uchar diffuse_red
property uchar diffuse_green
property uchar diffuse_blue
property int32 number_of_camera_sees_this_point
property float vsfm_cnx
property float vsfm_cny
property float vsfm_cnz
end_header
0.319449275732 1.62372076511 11.8053512573 134 135 140 2 -0.0625291216252 -0.141656038499 -0.987939105262
-1.03996515274 1.88764941692 12.4650382996 127 132 136 2 0.0547714734612 -0.155627779089 -0.986296142176
1.24803936481 -1.95330202579 12.7169647217 16 18 20 2 -0.132631788882 0.161686630755 -0.977888665449
-1.61922252178 -3.20282840729 12.9513521194 86 93 99 2 0.0967452405806 0.254263078225 -0.962284077327
-1.19937741756 -1.72879445553 13.4235572815 5 14 23 2 0.0631427960691 0.136916040264 -0.988568149003
-3.01857876778 -0.864372909069 12.6580657959 151 153 153 2 0.214071150999 0.0730925539946 -0.974079576246
0.57500576973 -0.75335842371 11.476732254 2 6 10 2 -0.0882808670717 0.0724855174438 -0.99345474898
0.466245502234 -2.31059956551 12.9352903366 138 138 140 2 -0.0680517397427 0.187750082874 -0.979856554348
1.47701227665 2.04154205322 12.1982107162 139 143 144 2 -0.157195936112 -0.170088132365 -0.972810086758
-1.43081510067 -3.2316608429 12.6860733032 59 69 71 2 0.0837062105879 0.261979159402 -0.961436524347
-1.64755356312 0.483552962542 12.9159183502 75 81 79 2 0.10251175543 -0.0367347859705 -0.994053265926
-1.64755356312 0.483552962542 12.9159183502 75 81 79 2 0.10251175543 -0.0367347859705 -0.994053265926
2.10347223282 2.41361474991 12.5749416351 47 61 70 2 -0.200876754495 -0.192712056856 -0.96047414991
-0.121337175369 0.395828604698 11.5337085724 146 146 146 2 -0.0242740114795 -0.0335390771826 -0.999142583753
-0.0333610661328 2.12947940826 11.9059371948 82 86 94 2 -0.0307711439744 -0.183974020347 -0.982449335353
-3.23990106583 0.661117851734 12.8381385803 61 78 92 2 0.228223447802 -0.0503951810907 -0.972303647837
-3.78662014008 1.98494100571 13.2257146835 121 121 121 2 0.258729874513 -0.148866244449 -0.954409604571
-0.841958463192 -3.70917916298 12.8640098572 89 98 107 2 0.0357993739192 0.293972964591 -0.955143078767
-0.841958463192 -3.70917916298 12.8640098572 89 98 107 2 0.0357993739192 0.293972964591 -0.955143078767
0.197383239865 2.20051646233 11.8526983261 145 146 147 2 -0.0510829879728 -0.19069958446 -0.98031841604
-1.31356954575 2.3407125473 12.3528747559 152 152 152 2 0.0777426369173 -0.193843553328 -0.977947217
-3.21383857727 -1.58636200428 13.1678495407 35 49 60 2 0.219118078479 0.125696876244 -0.967567859629
-0.201209843159 -2.83981108665 12.769659996 22 24 29 2 -0.0147981676415 0.231612022236 -0.972695679743
-1.6283506155 2.04528999329 12.1042766571 157 157 157 2 0.106489116133 -0.172936987194 -0.979159265189
-2.11308383942 -0.704786360264 12.1776237488 12 22 31 2 0.148225664499 0.063427163677 -0.986917497713
-2.25483417511 -1.26081287861 12.7203588486 13 23 33 2 0.152519271692 0.105779279492 -0.982623333629
0.927182137966 -1.56430661678 12.2882051468 8 11 19 2 -0.111242125361 0.13573502282 -0.984480163906
-0.13833810389 -3.1297326088 12.6883430481 161 161 161 2 -0.0198663108932 0.255139205535 -0.966700220074
-1.6868878603 -2.75364875793 13.2545900345 147 147 147 2 0.100522706864 0.215666573444 -0.971279112564
0.307782948017 -1.73672091961 12.3387966156 90 102 114 2 -0.0586318084941 0.150109819726 -0.986929254331
-3.39852309227 -0.915968954563 13.0485153198 139 139 137 2 0.23599301581 0.0744542574636 -0.968898271252
-3.79882621765 -2.63763976097 13.1203050613 163 163 163 2 0.259078034964 0.2031101436 -0.944258884716
-2.33796906471 -0.752706408501 12.17827034 13 29 37 2 0.166959539839 0.0673235374789 -0.983662570884
-1.18426394463 -3.07776594162 12.4487886429 61 70 78 2 0.0654660634961 0.255506833428 -0.964588229558
-1.28230202198 -3.82586765289 12.9583024979 48 50 56 2 0.0695091246093 0.29966364891 -0.951509421455
-3.64542126656 -1.0171970129 13.2426147461 29 42 51 2 0.250333105813 0.0807811597874 -0.964783779071
-2.31589245796 -0.927152633667 12.3155841827 14 26 35 2 0.163065046757 0.081276423185 -0.983261884525
0.718641042709 -0.767063379288 11.724486351 155 155 155 2 -0.0991187688785 0.0720196201493 -0.992465940962
0.0930609479547 0.575911939144 11.5904417038 154 154 154 2 -0.043705705955 -0.0498296663742 -0.997800989985
-4.42431354523 0.136107474566 13.2074956894 62 70 81 2 0.306821643168 -0.0078987555136 -0.951734253321
-2.84096050262 0.720531523228 12.9497976303 27 42 69 2 0.195896677265 -0.0550346516227 -0.979078995259
-0.502320170403 -1.94400727749 12.9313325882 7 17 26 2 0.0094329799804 0.159602380467 -0.987136312288
-0.29603266716 2.01847290993 12.0091075897 121 130 135 2 -0.00774656272502 -0.173072413951 -0.984878637343
-0.40399813652 0.103803873062 11.6011209488 137 138 139 2 0.00171357905903 -0.00655399509563 -0.999977054134
-3.19843864441 1.14176845551 11.9773216248 31 49 71 2 0.240426616928 -0.0950920615875 -0.965998209986
0.599916696548 -1.83180248737 12.5111713409 24 26 29 2 -0.081929918495 0.155473944092 -0.984436560254
-0.651245236397 0.0159931890666 11.7628059387 31 31 31 2 0.0239733872993 0.00148367701742 -0.999711496085
0.291819095612 1.93346989155 11.6200208664 30 35 48 2 -0.0608084536328 -0.171302364526 -0.983340140478
0.291819095612 1.93346989155 11.6200208664 30 35 48 2 -0.0608084536328 -0.171302364526 -0.983340140478
0.417525619268 2.04810404778 11.6612939835 149 150 152 2 -0.0716555331532 -0.180509283536 -0.980959674567
-1.58528470993 -1.23519301414 12.7286300659 6 10 19 2 0.0985270757025 0.10435334074 -0.989647813937
-3.56543064117 -2.78216338158 13.2765493393 113 115 110 2 0.239194231004 0.21217009179 -0.947507241135
-1.24943912029 -0.377449572086 11.9550466537 149 150 152 2 0.0763166220088 0.0363074930824 -0.996422369857
-4.37603664398 1.33935511112 12.8885688782 136 140 143 2 0.309063209036 -0.101461044387 -0.945613869025
-0.11634144187 -2.18231511116 12.7230806351 100 113 122 2 -0.0219411414347 0.181220412755 -0.983197715779
-0.11634144187 -2.18231511116 12.7230806351 100 113 122 2 -0.0219411414347 0.181220412755 -0.983197715779
-1.3687582016 -3.68529415131 12.883682251 110 120 129 2 0.0768386983919 0.291149401264 -0.953586829069
-1.3687582016 -3.68529415131 12.883682251 110 120 129 2 0.0768386983919 0.291149401264 -0.953586829069
-4.631503582 1.514097929 13.0474653244 149 150 152 2 0.322637706657 -0.112843732164 -0.939771888468
-0.151621237397 2.09493970871 11.8983459473 114 122 132 2 -0.0204584499854 -0.181211004815 -0.983231419127
-3.99065923691 -2.40108394623 13.2996034622 145 149 148 2 0.270069572484 0.182690160532 -0.945350057525
-0.819646418095 2.02918434143 12.2782373428 90 101 112 2 0.0368680627571 -0.169939886125 -0.984764530765
-3.64989376068 1.15919184685 12.2413005829 31 50 84 2 0.270464034394 -0.0936103203173 -0.958168207587
-4.60927963257 0.264499932528 13.2559614182 131 135 136 2 0.31832977095 -0.0175337398728 -0.947817875382
-1.13451516628 -1.55229413509 13.0722837448 26 38 50 2 0.0598464906128 0.126892153131 -0.990109478308
0.171417355537 -2.01760840416 12.6504812241 128 128 130 2 -0.0457613585603 0.168995748051 -0.984553876232
-4.03865623474 1.74266064167 13.2099885941 151 151 151 2 0.277508396894 -0.130209810922 -0.951858442623
-4.03865623474 1.74266064167 13.2099885941 151 151 151 2 0.277508396894 -0.130209810922 -0.951858442623
-0.846835613251 -1.22732710838 12.5104627609 4 5 10 2 0.0387485846611 0.106045484101 -0.993606009688
-0.430971354246 -2.29991412163 12.9351596832 140 146 150 2 0.00366740063985 0.187358835069 -0.982284692487
1.2649422884 2.15893101692 11.970533371 21 28 30 2 -0.142074028559 -0.183639403559 -0.972672370261
0.489401251078 -0.510707676411 11.4865474701 158 160 159 2 -0.0805018536128 0.050158638381 -0.995491618529
0.789064466953 2.09662866592 11.9098014832 154 155 155 2 -0.102231056624 -0.180261819783 -0.978291616743
1.14449930191 1.53844070435 12.4254274368 146 147 149 2 -0.128044813466 -0.126421579174 -0.983677848721
-1.39468741417 -2.21833300591 13.4004487991 141 147 147 2 0.0778852217995 0.174064734989 -0.981649306147
-4.32085895538 0.475662738085 13.0520629883 129 134 138 2 0.302920577617 -0.0342009276119 -0.952401921568
0.851576626301 1.80800426006 11.9692735672 143 144 146 2 -0.107520051054 -0.154834152273 -0.982072209113
-0.494169205427 -0.0880861356854 11.5050172806 121 125 127 2 0.010049041184 0.0111574677473 -0.999887257487
-2.61989855766 -1.1692647934 12.4940319061 15 29 39 2 0.184855204932 0.0996759527957 -0.977697937834
-1.32578241825 0.53936868906 12.7836923599 159 159 159 2 0.0773731301415 -0.041818065788 -0.996124815526
0.701237440109 -0.892096936703 11.6132745743 1 2 6 2 -0.0984580943161 0.0840575472542 -0.991584758058
-0.949404120445 -1.39538300037 12.7860546112 26 38 50 2 0.0462117469195 0.117263405336 -0.992025084469
-3.30916595459 0.685389101505 12.56782341 138 142 141 2 0.238421210412 -0.0533899683873 -0.969693166781
0.474527031183 -0.994418561459 11.7118701935 0 4 10 2 -0.0773060588434 0.092627667689 -0.992695264643
-0.925475001335 -1.14998054504 12.4569549561 11 23 37 2 0.0455701570854 0.100021303905 -0.993941195216
-1.40042662621 -0.572063207626 12.1243906021 88 97 106 2 0.0881788943148 0.052663163661 -0.99471155306
-1.65096974373 -3.45887255669 12.9354324341 89 98 106 2 0.0988066578408 0.273197611016 -0.956870058943
-0.442393362522 1.04116904736 12.3401060104 57 62 66 2 0.004882982857 -0.0863919045563 -0.996249263641
-0.313944369555 -0.699073195457 11.7990264893 7 16 25 2 -0.00639499339452 0.0658037087578 -0.997812094521
-0.678884088993 -3.76852679253 12.9359169006 126 133 138 2 0.0228731718635 0.296737430352 -0.954685139424
-0.989147245884 -2.94922757149 12.3731946945 13 16 21 2 0.0499555109857 0.247315921275 -0.967646258716
-0.794936358929 -2.55711889267 12.7915668488 146 150 151 2 0.0330485219354 0.209417228596 -0.977267731773
-0.794936358929 -2.55711889267 12.7915668488 146 150 151 2 0.0330485219354 0.209417228596 -0.977267731773
0.0339900963008 -3.44950723648 12.7135229111 143 150 153 2 -0.0334275361481 0.278376233018 -0.959890239933
0.769701838493 1.8813983202 11.8773174286 27 34 52 2 -0.1011667375 -0.162469251228 -0.981513644138
-3.22767853737 0.903407871723 12.3962068558 133 136 138 2 0.235063985158 -0.072230664317 -0.969292347032
-2.69349336624 1.05517172813 12.3718757629 31 49 65 2 0.192888535092 -0.0857090318507 -0.977470191305
0.00904824305326 -1.04379534721 12.0023794174 3 8 17 2 -0.0346225169747 0.0947940904526 -0.99489464856
0.387421131134 -0.692668557167 11.5215501785 12 19 27 2 -0.0708704272897 0.066730113933 -0.995250960527
-1.41623544693 -0.295611709356 12.1293773651 153 153 153 2 0.0895900565407 0.0285894163033 -0.9955683136
-2.81380748749 1.14262187481 12.3182449341 34 50 72 2 0.203294300946 -0.0931995998815 -0.974671873907
-3.44508504868 -1.59046578407 13.3198747635 4 11 22 2 0.233430935843 0.124091874051 -0.964422731475
-0.617334783077 -1.38131833076 12.5748348236 2 5 10 2 0.0193631986775 0.118266422987 -0.99279309009
-1.41552007198 -1.64754891396 13.267742157 27 40 49 2 0.0808390615102 0.132134639524 -0.987929897904
0.022148154676 -0.0795760452747 11.1140947342 8 9 14 2 -0.0389752917817 0.010752065644 -0.999182325562
0.394111633301 -0.386534899473 11.3940887451 158 160 158 2 -0.0724292036414 0.0390694500633 -0.996608041575
-4.95341682434 -3.3543908596 12.9551334381 148 151 154 2 0.337643924465 0.250868570715 -0.907227391837
1.59215223789 -1.58325028419 12.4568252563 149 149 145 2 -0.164008073539 0.134382138969 -0.977262908608
0.750764906406 -0.826249659061 11.5968847275 161 161 161 2 -0.103100968346 0.0781888734301 -0.991593006429
-1.26754212379 -1.07202327251 12.420042038 5 12 20 2 0.0745726173793 0.0936143744612 -0.992811801718
1.84807419777 2.3656065464 12.3401250839 49 63 74 2 -0.184485250843 -0.193274320629 -0.96364424411
0.998645603657 -1.06986665726 11.7415561676 2 5 10 2 -0.123444101541 0.0986411594757 -0.987436820993
-1.06125414371 -2.63580822945 12.8280096054 142 143 145 2 0.0542509921177 0.21467216862 -0.975178286199
0.384431540966 -3.47278523445 12.8348522186 162 162 162 2 -0.0606996713124 0.277149583048 -0.958907533873
0.576357245445 1.94878780842 11.6758041382 148 149 150 2 -0.0857631499813 -0.171473380436 -0.981448705693
-3.79135346413 0.296388983727 13.0005588531 142 146 147 2 0.266352457932 -0.0206963802202 -0.963653479213
-1.07429087162 -0.413652718067 11.9087781906 138 145 148 2 0.0611543939322 0.039714527049 -0.997337904847
-1.07429087162 -0.413652718067 11.9087781906 138 145 148 2 0.0611543939322 0.039714527049 -0.997337904847
-4.32938337326 1.68638718128 13.1937589645 150 150 150 2 0.298214421736 -0.125344330243 -0.946233035539
0.577078580856 -1.68772137165 12.3643407822 70 80 91 2 -0.0811634669603 0.145498877304 -0.986023614491
0.0226222239435 -0.0770895406604 11.1310386658 7 8 13 2 -0.0389576990753 0.0104962766666 -0.999185731413
-0.585515856743 -2.79275417328 12.4078998566 160 160 160 2 0.0165918185126 0.234676666378 -0.971931877148
-1.81896054745 -0.50632494688 12.1526002884 158 159 161 2 0.123793775623 0.0466548887303 -0.991210584323
-0.273770749569 0.461539208889 11.7775192261 33 34 36 2 -0.0100292455015 -0.0387335339439 -0.999199243186
-3.37618160248 2.82956957817 13.3496141434 29 37 79 2 0.224594524812 -0.210514264128 -0.951441561013
-3.37618160248 2.82956957817 13.3496141434 29 37 79 2 0.224594524812 -0.210514264128 -0.951441561013
-1.18244016171 0.544287502766 12.7152481079 121 122 119 2 0.066005090141 -0.0424979578696 -0.996913863708
0.0671495199203 0.401959508657 11.4673719406 147 147 147 2 -0.0418392367702 -0.0342940000814 -0.998535627719
0.644538521767 1.82640087605 11.7634325027 145 147 148 2 -0.0912612934333 -0.159497062817 -0.982971038878
0.378120988607 -0.4772567451 11.3929023743 4 6 11 2 -0.0709327615356 0.047522637009 -0.99634840408
-3.37793087959 0.553765892982 12.9133090973 140 143 144 2 0.237362673987 -0.0414579054912 -0.970536039037
-1.99040544033 -1.96015810966 13.4359664917 5 15 26 2 0.123348930203 0.153476199869 -0.980423427653
-3.93629026413 -3.08362293243 13.2414064407 80 89 96 2 0.264562143389 0.232663664081 -0.935881665437
-3.93629026413 -3.08362293243 13.2414064407 80 89 96 2 0.264562143389 0.232663664081 -0.935881665437
-0.867589056492 2.17463469505 12.3040084839 93 106 115 2 0.0407549672656 -0.181503670956 -0.98254539339
-3.45811009407 0.602995991707 12.77987957 45 64 79 2 0.245820239248 -0.04576519852 -0.968234453312
1.49510359764 -1.4270529747 12.295592308 156 156 156 2 -0.158496362135 0.123376509355 -0.979620916543
1.54154789448 -1.6785466671 12.47290802 9 9 11 2 -0.159537331219 0.142063385282 -0.97691649311
-0.0514852814376 -0.0180475898087 11.1243638992 148 149 149 2 -0.0319097860589 0.0048411437075 -0.999479028735
-1.68031001091 -3.74966239929 13.1251907349 5 5 6 2 0.099046991786 0.289919848934 -0.951911852333
-0.0834014564753 -0.472770661116 11.4049100876 0 1 5 2 -0.0280786731403 0.0471522486735 -0.998492991242
-2.53939199448 2.87147331238 13.0500268936 149 149 149 2 0.167292054918 -0.22100960154 -0.960816384325
-1.67362999916 -1.6274613142 13.2352647781 2 11 19 2 0.101179434829 0.130670375963 -0.986249448574
-0.74111354351 -0.44609194994 11.8358564377 10 20 29 2 0.0318278858051 0.0429352895548 -0.998570751923
0.00166530080605 -3.31109046936 12.6437501907 43 45 48 2 -0.031112652108 0.269595331743 -0.962470965786
0.00166530080605 -3.31109046936 12.6437501907 43 45 48 2 -0.031112652108 0.269595331743 -0.962470965786
-0.0825638175011 0.154247477651 11.2890205383 151 151 151 2 -0.0284920046267 -0.0115085923916 -0.999527767485
-0.411812067032 -0.0169088877738 11.4571485519 51 51 47 2 0.00245974721509 0.00458723378946 -0.999986453373
-2.76349687576 1.22385144234 12.1070203781 140 144 145 2 0.202601525319 -0.101796885408 -0.9739558594
-3.27265834808 2.90764594078 13.3323831558 30 44 81 2 0.217187816191 -0.216757759483 -0.951759174478
-2.19190120697 -0.707968533039 12.1977062225 17 26 41 2 0.154565420695 0.0635264695332 -0.985938090548
1.29087591171 2.61405801773 12.412156105 152 152 152 2 -0.138109248587 -0.213318424869 -0.967171693685
-0.805398285389 0.84723752737 12.5723676682 155 155 155 2 0.0352095436943 -0.0684715304719 -0.997031562965
-3.94605207443 0.458676427603 12.6705799103 125 129 129 2 0.284445213162 -0.0341416363416 -0.958084166124
-0.703464448452 0.762731015682 12.5154304504 150 150 150 2 0.0268144513088 -0.0617096107452 -0.997733886937
-4.61793041229 0.321651905775 13.3303365707 121 123 127 2 0.317207336898 -0.021728416602 -0.948107262566
-1.7195558548 0.369476526976 12.8819408417 158 158 158 2 0.108621240175 -0.027513357684 -0.993702390725
1.38040089607 -1.42643916607 12.1755456924 25 36 45 2 -0.150542143518 0.124752855075 -0.980700661861
1.86161613464 2.07796096802 12.7548837662 29 41 66 2 -0.180371517229 -0.164644938858 -0.969720660748
-1.77112925053 -1.61918795109 13.2216424942 22 36 45 2 0.108872558304 0.130062998126 -0.985510214339
-0.534875929356 -2.6027712822 12.5898895264 57 62 65 2 0.0122621044488 0.216491088378 -0.976207585223
-0.0459276251495 -0.752161920071 11.7573652267 1 2 6 2 -0.0305176116185 0.0707899592233 -0.997024301135
-2.63959026337 -1.93627977371 13.2756814957 9 19 28 2 0.174086984304 0.152387155836 -0.972867861856
0.745532214642 -1.9903897047 12.7320070267 95 106 117 2 -0.0920898471768 0.165184183283 -0.981953993647
-4.39767313004 0.582242071629 13.1616001129 45 55 64 2 0.305741419029 -0.041996921029 -0.951187911674
-2.52316451073 1.36746633053 11.8639640808 155 155 155 2 0.186367823145 -0.116739004823 -0.975519881524
0.64808434248 -0.820043325424 11.5556287766 8 7 13 2 -0.0942215765561 0.0779894812118 -0.992491780989
-0.314909905195 -3.90545320511 13.116060257 134 143 148 2 -0.00538415887104 0.302474460862 -0.953142282851
-1.1049374342 0.597040891647 12.6988620758 155 155 155 2 0.0596812715716 -0.0469509462126 -0.997112709012
0.813877701759 -1.74968028069 12.470246315 21 21 21 2 -0.100000945661 0.149039940524 -0.983761610857
-1.59470570087 -0.949401080608 12.364566803 12 22 31 2 0.10254423676 0.0834821556762 -0.991219152958
-0.142120167613 0.588434100151 11.7242393494 45 46 44 2 -0.0219627352439 -0.0503936667216 -0.998487915107
-1.0806684494 1.77935051918 12.5946044922 45 48 57 2 0.0576290550687 -0.145156483566 -0.987728954365
-1.02379846573 2.2817671299 12.446187973 147 147 147 2 0.0532056412477 -0.187926795752 -0.980740882791
-3.68282461166 -0.614865839481 13.3581285477 155 155 157 2 0.25138072898 0.0494546288016 -0.966624005903
-3.68282461166 -0.614865839481 13.3581285477 155 155 157 2 0.25138072898 0.0494546288016 -0.966624005903
-2.92817950249 -0.177254006267 12.8416910172 153 153 153 2 0.204573150074 0.0169080220673 -0.978705239109
0.0630762279034 2.0267791748 11.729133606 84 99 108 2 -0.039863076839 -0.177913409913 -0.983238401243
-0.787803709507 2.38685321808 12.4697856903 142 143 146 2 0.0334525516824 -0.196163093982 -0.980000493543
-1.25935149193 -1.19432044029 12.6064805984 24 33 44 2 0.0726780292823 0.102277896762 -0.992097341945
-2.88317584991 -0.403432935476 12.6141738892 151 151 151 2 0.20466125574 0.035803071451 -0.978177852169
0.245877996087 2.39202690125 12.2387113571 52 54 51 2 -0.0533824203818 -0.200184292438 -0.978302901077
1.78269982338 2.19333863258 12.5512008667 24 29 44 2 -0.176750519933 -0.176658562124 -0.968272175647
-0.203639164567 2.12880587578 11.9358682632 106 116 125 2 -0.0158438799401 -0.183507427356 -0.98289063256
0.516578257084 -2.20572757721 12.9084701538 88 98 109 2 -0.0723171588619 0.179952929804 -0.981013339149
-2.97407102585 -0.567718207836 12.6605062485 140 141 143 2 0.210883487795 0.0490132784167 -0.976281646409
-2.9846997261 0.235288843513 13.0678920746 154 156 155 2 0.205285424769 -0.016064341216 -0.97857029963
-0.826349318027 -3.56888151169 12.7650251389 126 135 142 2 0.0349467913695 0.286003812905 -0.957591009135
-5.02454423904 1.52114224434 13.184718132 152 152 152 2 0.345677328695 -0.111175363387 -0.93174418324
-5.01607561111 1.4397162199 13.2094488144 43 64 92 2 0.344755539147 -0.105005876946 -0.932800827634
-0.588272809982 -0.717691659927 11.8705329895 6 9 16 2 0.0180839189525 0.0670310284221 -0.997586995256
1.4456499815 -1.65371417999 12.3952131271 108 118 127 2 -0.152788451131 0.141107652839 -0.978133078631
-1.46463692188 -2.63110113144 13.2152748108 148 149 151 2 0.0839064061351 0.207540000282 -0.974621394847
-1.76671075821 2.05309081078 12.01583004 159 159 159 2 0.119048774516 -0.174652162883 -0.977406778822
0.813799321651 -1.90901315212 12.6749000549 48 56 59 2 -0.0981506520398 0.159356412711 -0.982329874956
0.0238284803927 -3.22502040863 12.6842889786 161 160 161 2 -0.0328505434039 0.262298380291 -0.964427499346
0.0238284803927 -3.22502040863 12.6842889786 161 160 161 2 -0.0328505434039 0.262298380291 -0.964427499346
0.838872134686 -0.994363486767 11.6794509888 0 3 8 2 -0.110046249294 0.0926072451668 -0.989602809797
-0.0857193097472 -3.30549550056 12.6379127502 134 143 150 2 -0.0241034782302 0.269351256157 -0.962740319683
0.513161957264 -3.56462073326 12.9481391907 160 160 160 2 -0.0700661131867 0.281240465852 -0.957076036765
-1.43421709538 -3.38169932365 12.8429298401 106 115 120 2 0.0827187931081 0.269887696683 -0.959332180449
-1.20146334171 -3.91713428497 13.0348501205 149 149 149 2 0.0627848732935 0.304504528669 -0.950439399281
-0.466565012932 0.524997591972 12.1001796722 97 101 102 2 0.0071101542216 -0.0431955195232 -0.999041336883
-0.89035230875 -0.00689261220396 11.9998807907 43 45 41 2 0.0445442852812 0.00347584020017 -0.999001363955
-0.735784769058 2.08236694336 12.212635994 122 131 135 2 0.0298986742407 -0.175334265842 -0.984054858481
-1.73118901253 -1.50800979137 13.0815935135 33 45 57 2 0.107046952261 0.122821049845 -0.986638707799
-2.9137134552 -0.286926954985 12.7054195404 55 60 63 2 0.205619172877 0.0260351296183 -0.978285708661
-1.28517520428 -2.92416405678 12.5401525497 104 111 117 2 0.0733917504342 0.241754710048 -0.967557910999
1.11726760864 -1.59507715702 12.2826528549 87 98 106 2 -0.127124464958 0.138100260421 -0.982225884652
1.11726760864 -1.59507715702 12.2826528549 87 98 106 2 -0.127124464958 0.138100260421 -0.982225884652
0.294805347919 -3.08992767334 13.1052131653 159 157 157 2 -0.0529811787459 0.243874289519 -0.968358572849
-3.14515805244 -1.70482826233 13.2472362518 28 42 53 2 0.212526031747 0.134089562226 -0.967911501705
-0.733909785748 -1.89187443256 13.068069458 9 19 28 2 0.0277934388925 0.153763771861 -0.987716673554
-0.700980305672 -2.5955991745 12.6133384705 53 55 60 2 0.0258197764803 0.215468223883 -0.976169444123
-2.64829969406 0.281349599361 13.0560865402 66 75 80 2 0.179786901649 -0.0198290048306 -0.983505709471
0.0928308591247 -1.40211236477 12.1772356033 4 13 22 2 -0.0411990844409 0.123995422352 -0.99142713836
-2.90700221062 -2.00165963173 13.3686943054 61 74 81 2 0.192522877647 0.15564896523 -0.968869620334
-1.99143373966 -1.11845386028 12.6360845566 23 34 46 2 0.13248344524 0.0951840145144 -0.986604348317
1.10151231289 2.16275167465 12.0503320694 154 155 157 2 -0.127385481014 -0.183077050327 -0.974810613848
-1.72524428368 -1.09751355648 12.535068512 17 27 37 2 0.111760900908 0.0945013225124 -0.98923152046
-1.33125591278 2.04545116425 12.2278594971 148 149 152 2 0.0803978475956 -0.171571376627 -0.981885659751
-1.15846765041 2.03175115585 12.2688274384 124 133 139 2 0.0655733408817 -0.17003617153 -0.983253699376
0.570304453373 -1.92454743385 12.5443677902 98 108 118 2 -0.0791713213068 0.162598034433 -0.983510946091
-3.77296280861 0.642228484154 12.6808214188 40 50 68 2 0.271278441398 -0.0489612128691 -0.961254808501
-3.57693910599 0.621432900429 12.7088432312 38 51 67 2 0.256104470569 -0.0473887958986 -0.965486821338
-0.340122759342 1.69115674496 12.2870512009 109 115 119 2 -0.00384168249326 -0.141797157399 -0.989888280378
-0.881042957306 -3.85195589066 12.9852724075 151 149 148 2 0.0383841605383 0.301410536347 -0.952721546308
-1.0814858675 -2.95691919327 12.3997907639 44 49 52 2 0.0574393589767 0.247285697567 -0.967238597151
-0.223473086953 0.145038083196 11.4853315353 49 50 52 2 -0.0149576800661 -0.0104483261269 -0.999833536289
-0.223473086953 0.145038083196 11.4853315353 49 50 52 2 -0.0149576800661 -0.0104483261269 -0.999833536289
1.59398818016 2.1447622776 12.3361635208 139 144 143 2 -0.164702700992 -0.17627876777 -0.970463196788
-2.34298920631 0.929911971092 12.7296543121 87 101 110 2 0.159876428022 -0.0734907137064 -0.984397604001
-0.329313367605 -2.50098443031 12.9594373703 82 90 97 2 -0.00445511687076 0.202485589885 -0.979275108344
-0.843893706799 -0.135102793574 11.9270935059 141 142 145 2 0.0407097723205 0.0149150452343 -0.999059685836
-3.38500213623 1.32482898235 12.1476640701 146 147 149 2 0.251471544019 -0.108653331972 -0.961746596563
0.912086188793 1.96735644341 11.993929863 23 32 62 2 -0.11223002353 -0.167902180347 -0.979394343282
-0.217690289021 -0.629867076874 11.6050329208 1 2 7 2 -0.0152960945002 0.060652543497 -0.998041731823
-1.37985682487 -1.87299799919 13.4013624191 11 21 31 2 0.0770723063128 0.14799698193 -0.985980097638
-0.607541799545 -2.08241128922 13.0280685425 94 107 116 2 0.0177378020889 0.169145494943 -0.985431464851
-0.460178405046 0.338333398104 11.8784694672 137 137 137 2 0.00668338112347 -0.0273747649768 -0.999602898485
-0.460178405046 0.338333398104 11.8784694672 137 137 137 2 0.00668338112347 -0.0273747649768 -0.999602898485
-0.664503216743 -1.09625220299 12.3357725143 3 11 19 2 0.0238266734141 0.0965780407268 -0.995040185964
-1.29513788223 -0.978575885296 12.3375940323 55 67 77 2 0.0774805326218 0.0863388492162 -0.993248392992
0.27842643857 -1.40614056587 12.1329698563 2 7 13 2 -0.0573621139264 0.124712901113 -0.990533331182
-1.44287884235 -1.24753916264 12.7315158844 17 30 39 2 0.0868994640815 0.1054480654 -0.990620607824
-1.44287884235 -1.24753916264 12.7315158844 17 30 39 2 0.0868994640815 0.1054480654 -0.990620607824
0.536011397839 1.74348175526 11.748749733 140 141 143 2 -0.0819095063264 -0.152623961135 -0.984884134942
-2.9013607502 -0.723301231861 12.4929361343 139 142 143 2 0.207832344235 0.0625904369708 -0.976159901804
-2.28950190544 -1.0779030323 12.4769020081 16 28 40 2 0.158599184233 0.0927299187997 -0.982978871045
0.0514334701002 -0.45847260952 11.3928251266 0 0 4 2 -0.0406503982583 0.0458525701087 -0.99812077773
0.656484782696 -1.1810952425 11.8745326996 0 3 7 2 -0.092053802511 0.107571932949 -0.989926450139
1.38922989368 -0.333666741848 12.6530838013 69 72 74 2 -0.146464167974 0.0303011296482 -0.988751783332
-4.7557759285 1.20291900635 13.2071666718 131 133 139 2 0.328117127952 -0.0880767362625 -0.940522003397
-3.12637972832 1.14128434658 12.033864975 115 120 122 2 0.233519876717 -0.0947449940215 -0.967725091793
1.16334116459 2.54109144211 12.2654247284 154 154 154 2 -0.129457618264 -0.2103227077 -0.96902274674
-3.28920602798 0.928550541401 12.287563324 42 58 78 2 0.241922584233 -0.074866756496 -0.96740293157
-0.825048685074 -3.07205247879 12.3904914856 154 159 160 2 0.0362603101245 0.2566391383 -0.96582686989
0.442135840654 1.52392506599 11.807179451 47 56 61 2 -0.0734391280014 -0.132814396564 -0.988416425675
-0.35901889205 -3.44606518745 12.715763092 146 151 157 2 -0.00208846415293 0.278229459196 -0.96051236658
-1.12490773201 -0.842917263508 12.2200422287 53 66 76 2 0.0637412622061 0.0756570671376 -0.995094497867
-1.22564971447 -0.848769783974 12.2387962341 72 84 96 2 0.0722619095086 0.0759925283785 -0.994486476562
-0.694723248482 -3.73377990723 12.9398765564 127 132 143 2 0.0241181299971 0.294165143658 -0.955450252008
-3.15869021416 -1.81786036491 13.3008966446 45 59 70 2 0.212419461554 0.142042319662 -0.96679985094
-4.50648355484 -3.89819049835 13.0401649475 36 47 53 2 0.302793416939 0.28940535453 -0.908053240415
-0.759674966335 -2.14801907539 13.1513633728 123 128 131 2 0.0295544698216 0.172512954121 -0.984563768364
-2.90755081177 0.850181818008 12.7905607224 51 68 78 2 0.203387238473 -0.0661154644993 -0.976863540409
-3.79533171654 1.95993185043 13.2143220901 133 134 136 2 0.25963530979 -0.147097766306 -0.954437925199
-3.79533171654 1.95993185043 13.2143220901 133 134 136 2 0.25963530979 -0.147097766306 -0.954437925199
2.00334405899 2.31942534447 12.5865058899 35 54 80 2 -0.193205091707 -0.185485178046 -0.963466159895
-1.57508265972 -3.88809299469 13.133436203 101 110 113 2 0.0907319177396 0.299642791684 -0.949727285327
-2.6154384613 -1.30062401295 12.5961303711 21 32 44 2 0.182786692364 0.109547755517 -0.977030354879
0.0294173229486 -2.99421548843 12.945766449 160 159 157 2 -0.0327860514087 0.239942099649 -0.970233406789
-0.0651017874479 -0.958435297012 11.9698448181 5 19 27 2 -0.028216711301 0.0876032409501 -0.995755737808
-1.16411876678 -0.923835873604 12.2739801407 15 27 36 2 0.0667615014381 0.0822064312247 -0.994376691496
-0.561748623848 1.86220991611 12.3417825699 111 119 121 2 0.0149463129408 -0.155347267278 -0.987746847263
-1.61316049099 -0.489245742559 12.1348676682 161 161 162 2 0.106408547814 0.0453408612823 -0.993288189425
-0.658611059189 -2.76463508606 12.4497499466 57 64 66 2 0.0225806145337 0.231656628634 -0.97253551208
-0.335436016321 -3.73602080345 12.9665718079 153 154 151 2 -0.00386911148835 0.293822667997 -0.955852117091
-1.9028968811 -3.15437483788 13.2343816757 19 23 25 2 0.116342515556 0.244864457693 -0.962551721432
1.31218695641 2.02067375183 12.0145301819 33 45 57 2 -0.145827924884 -0.171328755253 -0.974361675122
-3.87915205956 -2.55332660675 13.2230110168 160 161 162 2 0.263158594481 0.195193999763 -0.944799902946
-3.84181571007 0.61577796936 12.6306400299 130 136 137 2 0.277470734253 -0.0469532596412 -0.959586047753
1.44475185871 1.70753276348 12.6081647873 73 77 80 2 -0.150126610288 -0.137800268783 -0.979016387404
-0.936302900314 0.0716215223074 12.1455974579 133 133 133 2 0.0479745329468 -0.00342522673904 -0.998842686318
-2.64439296722 1.45817995071 11.8153877258 158 159 161 2 0.197161609199 -0.124815003853 -0.972393189338
-3.95951843262 0.278849720955 12.9402084351 142 143 146 2 0.279777413081 -0.0193407280459 -0.959870061711
-1.56731987 -1.48623144627 13.0324392319 30 40 50 2 0.0945215519997 0.121741562509 -0.988050944114
-3.95387411118 -2.95104503632 13.1854839325 58 68 77 2 0.267422677071 0.224069554251 -0.937164844969
-1.83224606514 -2.81345891953 13.2750854492 65 66 68 2 0.111334074647 0.219476469356 -0.969244449673
-0.989271461964 1.81887459755 12.5522127151 118 126 132 2 0.050225733649 -0.148947537821 -0.987568735155
-3.14471507072 -0.214609965682 12.9420595169 150 151 153 2 0.219447447848 0.01969125831 -0.975425585055
-0.949322760105 -0.927072644234 12.2407627106 5 12 22 2 0.0485373082233 0.0828061152736 -0.995382980055
-3.70969343185 0.897253811359 12.4976654053 42 52 79 2 0.270048934622 -0.0704415050931 -0.960266404322
-0.569555103779 -1.50382733345 12.6825933456 18 31 40 2 0.0152244014207 0.127225730977 -0.991756941483
-2.09712171555 2.16544079781 12.1442375183 138 138 138 2 0.145167820289 -0.181403377314 -0.972635141588
0.0714320018888 -1.84423995018 12.5491228104 69 85 94 2 -0.0379536616204 0.156409800213 -0.986962762199
0.0714320018888 -1.84423995018 12.5491228104 69 85 94 2 -0.0379536616204 0.156409800213 -0.986962762199
1.00935542583 -1.38649654388 12.0858469009 5 11 18 2 -0.120372928212 0.12284204378 -0.985099076456
1.11826324463 1.33378791809 12.511680603 149 150 150 2 -0.125246750055 -0.108716653232 -0.986151074081
-1.61163115501 2.31288599968 12.3303442001 155 155 155 2 0.102706799475 -0.191516292002 -0.97610082637
-1.61163115501 2.31288599968 12.3303442001 155 155 155 2 0.102706799475 -0.191516292002 -0.97610082637
1.42655849457 2.27529716492 12.0665988922 155 155 156 2 -0.154148830447 -0.19139099896 -0.969333597679
-3.08258056641 0.997693121433 12.4911155701 129 132 136 2 0.221853114929 -0.0796117528519 -0.971824657129
-0.807989060879 1.93616867065 12.3560848236 123 133 134 2 0.0356949613879 -0.161188153833 -0.986277977446
-0.99905115366 -0.235079929233 11.9647789001 144 145 147 2 0.0542567221029 0.0237182157968 -0.998245287665
-0.0583287701011 -2.98066687584 12.9078540802 9 12 16 2 -0.025934688105 0.239677610418 -0.970506071602
-0.114662244916 2.12648510933 11.9311590195 110 119 126 2 -0.0236152743519 -0.183357134859 -0.98276267731
1.59434056282 -0.334123432636 12.8652820587 149 148 148 2 -0.160214606799 0.0297456742987 -0.986633911149
0.338107377291 -0.683325052261 11.4963531494 12 19 27 2 -0.0665244767825 0.0660469333911 -0.995596452675
0.237252578139 -1.63659584522 12.3139266968 5 8 15 2 -0.0528570944919 0.142134228004 -0.988435121185
0.237252578139 -1.63659584522 12.3139266968 5 8 15 2 -0.0528570944919 0.142134228004 -0.988435121185
-0.16905811429 -0.851718723774 11.9015426636 7 16 23 2 -0.0191886554817 0.0787205288426 -0.996712031552
-0.868123412132 -3.13211297989 12.3423099518 120 127 133 2 0.0399074065193 0.262238942974 -0.964177439942
-3.08191871643 2.68052840233 13.0773410797 23 35 53 2 0.208018552101 -0.204756980118 -0.956453271768
-3.08191871643 2.68052840233 13.0773410797 23 35 53 2 0.208018552101 -0.204756980118 -0.956453271768
-0.522673070431 -2.03954386711 12.9484043121 111 123 132 2 0.0110433930908 0.166877376608 -0.98591581012
-0.728282213211 -2.47054362297 12.9292936325 138 143 146 2 0.027419093866 0.200550910939 -0.979299507512
-2.77990603447 -1.72323298454 13.0909471512 25 37 50 2 0.187600305448 0.137873956931 -0.97252089818
1.8374273777 -1.27527070045 12.6602687836 63 68 74 2 -0.181291442711 0.106951649034 -0.977596418554
-3.87524318695 0.524304389954 12.6516485214 39 50 70 2 0.279583273769 -0.039510347849 -0.959308149367
-0.495847135782 0.0306029431522 11.5929374695 111 112 114 2 0.0101232992026 0.00016533112358 -0.999948744426
-3.49253559113 1.48289275169 12.2917766571 144 144 146 2 0.256545290313 -0.120085820596 -0.959043226195
0.146972581744 -2.33917474747 12.8518285751 120 130 139 2 -0.0428556161972 0.191483178314 -0.98055983427
-1.69807851315 -3.11292767525 12.9463577271 4 4 4 2 0.103084584427 0.247577182601 -0.963368624727
0.527436137199 -0.878196895123 11.6045942307 106 111 115 2 -0.0828995046024 0.0829858997343 -0.993096678366
0.527436137199 -0.878196895123 11.6045942307 106 111 115 2 -0.0828995046024 0.0829858997343 -0.993096678366
1.23756754398 -1.49178397655 12.2006225586 132 139 146 2 -0.138218523508 0.130202851251 -0.981805916302
1.23756754398 -1.49178397655 12.2006225586 132 139 146 2 -0.138218523508 0.130202851251 -0.981805916302
-1.01490688324 -1.67936897278 13.2070770264 2 11 20 2 0.0497254029803 0.135509759795 -0.989527407048
1.85677528381 2.22419500351 12.5711927414 33 51 66 2 -0.182225394299 -0.178624784004 -0.966895595301
-3.10640096664 -0.95600092411 12.7048110962 147 149 151 2 0.219935081979 0.0800939702063 -0.97222091916
-3.36879897118 0.885459184647 12.3483753204 127 132 135 2 0.247012604956 -0.0708226835674 -0.966420674699
-4.31341218948 0.0831635296345 13.1933088303 141 145 145 2 0.299472684844 -0.00388163052861 -0.954096978287
-3.19838738441 2.56977438927 13.1317691803 139 139 139 2 0.216095286319 -0.195369368759 -0.956626174104
-1.00154852867 -1.76419353485 13.2600183487 9 19 28 2 0.048428686126 0.141513828539 -0.988750979111
-0.325146257877 0.680833518505 12.0248794556 148 148 148 2 -0.00528375862733 -0.0571991887692 -0.998348804126
0.289132833481 2.09682846069 11.7020311356 42 43 38 2 -0.0599787287085 -0.184206040013 -0.981055904078
-0.772140622139 -1.70644426346 13.0549182892 14 24 34 2 0.0309365216409 0.139381608975 -0.989755373165
-2.23034977913 -0.879286110401 12.3300542831 87 98 108 2 0.155881458028 0.0772426552617 -0.984751005712
1.39918982983 1.32985854149 12.8082351685 142 142 142 2 -0.144686808665 -0.105483984582 -0.983838836596
0.0646876916289 0.731166899204 11.7547988892 153 153 153 2 -0.04047966312 -0.0630720509899 -0.997187702119
-1.17608058453 -2.56965279579 13.0626087189 146 147 149 2 0.0623595689308 0.205680322071 -0.97663037495
-4.24958467484 1.38372051716 12.7828578949 52 70 93 2 0.302402282259 -0.10600844284 -0.947267158584
-2.75786590576 0.925817012787 12.7102928162 43 57 68 2 0.19291252825 -0.0728355733545 -0.97850893491
-3.26679325104 1.07583773136 11.9800300598 141 143 148 2 0.245993536273 -0.0893404631034 -0.965145306037
-4.03846979141 0.942826867104 12.6966571808 118 125 133 2 0.290042466074 -0.0724670137709 -0.95426615773
-0.042969815433 -2.91541028023 12.915102005 158 158 158 2 -0.0271706236519 0.234636609577 -0.971703359393
0.000435072608525 0.629792928696 11.6472434998 149 149 149 2 -0.0350634478579 -0.0544907287392 -0.997898449295
-1.89452648163 0.408269405365 12.9173994064 154 154 154 2 0.122303847888 -0.0305390334973 -0.992022749852
-3.9557363987 -2.51793384552 13.2355079651 63 72 79 2 0.268417311187 0.192155712122 -0.943942969333
-0.121086731553 -0.722445607185 11.7601985931 9 17 25 2 -0.0237610490405 0.0681164771733 -0.997394384427
-2.73693871498 -0.576511204243 12.4181118011 148 151 149 2 0.19610238701 0.0509158006557 -0.97926065736
0.712832093239 2.00585651398 11.7710561752 47 49 46 2 -0.0969373373224 -0.174769838069 -0.979825829591
-0.1736189574 0.101517602801 11.3720016479 142 143 145 2 -0.0197726632322 -0.00647885222171 -0.999783509697
-0.897098064423 -2.95859789848 12.3523435593 149 154 158 2 0.0424186075773 0.248548649266 -0.967690152207
-0.604198515415 1.49888086319 12.5905056 119 127 130 2 0.018237446515 -0.122458112924 -0.992306105052
0.0406411737204 -0.566142439842 11.5273456573 0 1 4 2 -0.0391395608607 0.0551918923507 -0.997708349065
0.0406411737204 -0.566142439842 11.5273456573 0 1 4 2 -0.0391395608607 0.0551918923507 -0.997708349065
-2.83189034462 -0.837305486202 12.521188736 125 133 136 2 0.201743864234 0.071907612595 -0.976795121044
1.11710655689 -1.97698235512 12.763086319 103 113 122 2 -0.121679990204 0.163184587556 -0.979063210609
1.11710655689 -1.97698235512 12.763086319 103 113 122 2 -0.121679990204 0.163184587556 -0.979063210609
-3.08838939667 0.641208946705 13.0508775711 144 145 147 2 0.213171246908 -0.0481320114715 -0.975828534612
-0.21440936625 2.23401665688 12.052778244 64 76 82 2 -0.0147310703917 -0.190477064983 -0.981581113959
-3.65552258492 -2.74607586861 13.2112159729 155 155 155 2 0.246852766204 0.210204653609 -0.945979764804
-1.09295547009 -0.764330267906 12.145608902 63 77 86 2 0.0614189816143 0.0693547396029 -0.995699567536
1.20614528656 -2.20450878143 12.9709243774 95 105 115 2 -0.126308982874 0.178004535781 -0.975889556296
0.415854811668 2.23690986633 11.9445724487 140 140 140 2 -0.0695690768403 -0.192040206209 -0.978918128725
-3.17030310631 -0.906851887703 12.7565393448 19 35 43 2 0.224005686046 0.0757391034444 -0.971640386577
-2.83104085922 -1.90447866917 13.2596540451 36 49 57 2 0.188663802828 0.149760116015 -0.970555447748
-0.706350803375 -0.661940276623 11.9356679916 0 1 6 2 0.0284404374178 0.0616951990304 -0.997689753348
0.311703324318 -0.748590230942 11.5683135986 4 4 9 2 -0.0636617513515 0.0715779026243 -0.995401318701
0.43966704607 -1.91655576229 12.5581588745 88 101 109 2 -0.0683321596331 0.161898138298 -0.984438778582
-2.5385632515 1.2188076973 12.0570936203 150 151 153 2 0.184895196355 -0.102174989948 -0.977432369934
-1.88117945194 -2.55159330368 13.4186372757 141 142 144 2 0.114306793768 0.197902443092 -0.973534067158
-1.89504146576 -1.19443011284 12.704375267 25 36 48 2 0.123895757474 0.100945875404 -0.987147289678
-2.41126227379 0.873882234097 12.7783107758 148 150 151 2 0.164714528784 -0.0685942766328 -0.983953225118
-1.45141708851 0.221470028162 12.6836566925 132 132 132 2 0.0884211346809 -0.0157238409983 -0.995959067315
-2.64148640633 0.996715426445 12.426448822 142 143 145 2 0.187937303244 -0.0805494453411 -0.978872492669
-2.64148640633 0.996715426445 12.426448822 142 143 145 2 0.187937303244 -0.0805494453411 -0.978872492669
1.1398293972 2.35898828506 12.0989027023 154 154 154 2 -0.129675020666 -0.198413112498 -0.971502252084
-4.31011199951 0.511035442352 13.0445098877 123 130 136 2 0.302306582331 -0.0369561556597 -0.952494080212
-2.28297662735 -1.89352786541 13.3142557144 155 158 159 2 0.146841973905 0.149377708837 -0.977815797992
-4.63957643509 1.48832714558 13.053481102 146 148 150 2 0.323119433888 -0.110835758122 -0.93984534162
-4.0959482193 0.833443462849 12.7511444092 116 123 129 2 0.293182689983 -0.0634512132436 -0.953948559322
-2.35539340973 -1.03247511387 12.419084549 110 119 125 2 0.164775671857 0.089311213016 -0.982279229748
-4.34568500519 0.793080031872 12.9649600983 37 45 57 2 0.306255721567 -0.0589656392237 -0.950121300887
0.364268988371 1.94370055199 11.5316734314 39 48 56 2 -0.0678040920519 -0.173481433279 -0.982500278579
1.94303643703 2.42240333557 12.39731884 151 153 152 2 -0.191008848763 -0.196612198326 -0.961696034703
-0.284196704626 -0.76667112112 11.8548059464 6 15 24 2 -0.0090133768792 0.071495613867 -0.997400188608
-2.70431160927 -1.15604579449 12.5484037399 18 30 42 2 0.190773640038 0.0980293043815 -0.976727021101
-3.48706555367 -0.621363759041 13.1682310104 152 153 155 2 0.240696638773 0.0508510884292 -0.969267401128
-0.167748242617 -0.588948488235 11.6770143509 9 20 25 2 -0.0197278627215 0.0565410396935 -0.998205350748
-2.01009893417 -0.825099229813 12.3210773468 14 24 34 2 0.137798107524 0.0729309035495 -0.987771615744
-2.05912804604 0.419202774763 12.9625444412 140 140 140 2 0.134920190427 -0.0312593298282 -0.990363264925
-0.724675059319 1.47146070004 12.6491889954 134 138 141 2 0.0281350551119 -0.119592301505 -0.992424354848
-4.12412834167 0.310963988304 12.8813066483 136 140 143 2 0.292862342502 -0.0218758085218 -0.95590433483
0.0960881337523 -1.49952566624 12.2820110321 103 113 122 2 -0.0410685766527 0.131096621376 -0.99051857523
-0.57460308075 -1.16342926025 12.3562421799 8 18 28 2 0.0161220309665 0.102105792898 -0.994642894296
-1.19967842102 0.472130835056 12.6630067825 155 155 155 2 0.0677327934563 -0.0366712142844 -0.997029332935
-3.59232258797 0.923379838467 12.3967962265 35 52 59 2 0.263208106005 -0.073323742785 -0.961948606568
-0.912165462971 -2.1403195858 13.262673378 1 6 11 2 0.0412207009486 0.170371691029 -0.984517313565
0.922918915749 -0.99686896801 11.678814888 160 160 160 2 -0.117505480554 0.092756855696 -0.988730816634
0.605166733265 1.87997841835 11.7121963501 20 25 35 2 -0.0881238321961 -0.164922991208 -0.982361744557
0.605166733265 1.87997841835 11.7121963501 20 25 35 2 -0.0881238321961 -0.164922991208 -0.982361744557
-3.70848894119 0.561031639576 12.684882164 132 138 137 2 0.266479472679 -0.0425008216331 -0.962903095229
-1.53866195679 -2.65785884857 13.2339849472 25 24 29 2 0.0894510337938 0.209132761707 -0.973787451415
-0.688773989677 -0.817733407021 12.0952425003 10 19 31 2 0.026488452452 0.074418835752 -0.996875217252
0.753556370735 -1.2454264164 11.9333772659 0 0 6 2 -0.0999742769316 0.112530573061 -0.988606096521
-3.68814206123 -1.42426967621 13.3672180176 151 152 154 2 0.250358104365 0.11066603832 -0.961807593826
-2.85969781876 -0.5570987463 12.52384758 142 144 148 2 0.204182761722 0.0487743728021 -0.977716963325
-1.62989616394 -3.34381580353 12.9095153809 21 29 36 2 0.0976013298091 0.265396295417 -0.959186523466
-3.14141750336 0.633919417858 12.9717092514 144 146 148 2 0.218489822815 -0.0478058485242 -0.974667532122
-3.20087456703 -1.00893712044 12.7790546417 18 32 41 2 0.225796764096 0.0837223009682 -0.970570140507
-4.0964012146 0.942760109901 12.7945480347 116 123 131 2 0.292091941533 -0.0718313618906 -0.953688918432
0.952562212944 -1.42490971088 12.1341056824 111 119 127 2 -0.115018819235 0.125670840955 -0.985381911218
0.952562212944 -1.42490971088 12.1341056824 111 119 127 2 -0.115018819235 0.125670840955 -0.985381911218
-2.88439822197 -0.797986924648 12.5568552017 61 65 68 2 0.205351993244 0.0684148559169 -0.976293995864
-2.76135993004 1.0448615551 12.4682188034 28 44 62 2 0.196813864635 -0.0840947334566 -0.976827711775
-2.80898213387 1.06783854961 12.4506168365 107 112 118 2 0.200854441803 -0.0860445906615 -0.975834935645
-2.80898213387 1.06783854961 12.4506168365 107 112 118 2 0.200854441803 -0.0860445906615 -0.975834935645
0.00334318098612 -1.90812790394 12.6088886261 72 87 99 2 -0.0321167372727 0.160840028851 -0.986457804625
0.00334318098612 -1.90812790394 12.6088886261 72 87 99 2 -0.0321167372727 0.160840028851 -0.986457804625
-1.55073404312 -3.35453462601 12.879327774 78 87 96 2 0.0916345106181 0.266943472729 -0.959345766046
-0.0344998501241 0.495699971914 11.5315551758 148 148 149 2 -0.0322482676903 -0.0427396077556 -0.998565658913
-1.14983212948 -2.98674297333 12.4256448746 31 38 44 2 0.0628889927979 0.24900099963 -0.96645924734
-0.705105006695 -1.28275585175 12.5015249252 0 5 10 2 0.0268682336083 0.110781642687 -0.993481517526
1.06796276569 -2.02915239334 12.8303966522 27 29 34 2 -0.117050190549 0.16649303221 -0.979070642558
0.453661352396 -0.69390052557 11.4615297318 11 18 25 2 -0.0773331051898 0.0671820601117 -0.994739243039
1.91055846214 -1.49593293667 12.7916622162 150 151 153 2 -0.184744911803 0.123313738927 -0.975019507166
-1.16928887367 -1.21596777439 12.6390914917 6 10 19 2 0.0650368530839 0.103836869755 -0.992465673069
-1.16928887367 -1.21596777439 12.6390914917 6 10 19 2 0.0650368530839 0.103836869755 -0.992465673069
-1.0299782753 -2.88380622864 12.3276081085 118 119 124 2 0.0535893993426 0.243060107217 -0.968529793325
-0.155861392617 0.199895843863 11.4216461182 41 45 46 2 -0.0213296328706 -0.0156266304068 -0.99965036647
-0.155861392617 0.199895843863 11.4216461182 41 45 46 2 -0.0213296328706 -0.0156266304068 -0.99965036647
0.0781748890877 -3.07106280327 12.966583252 6 6 7 2 -0.0365247775745 0.245246701988 -0.968772416921
0.58902066946 -1.19639074802 11.8704090118 11 18 26 2 -0.0861563119413 0.109009120483 -0.990300005839
-0.904838502407 1.78898823261 12.5282535553 40 47 55 2 0.0433206147231 -0.146847770157 -0.988210026634
2.03747844696 2.41709804535 12.476606369 45 55 60 2 -0.197247962282 -0.194678516473 -0.960829598108
-4.02941036224 -4.24576711655 13.1264600754 47 59 67 2 0.266807530081 0.313892304787 -0.911199957686
-4.02941036224 -4.24576711655 13.1264600754 47 59 67 2 0.266807530081 0.313892304787 -0.911199957686
-3.35939955711 2.93134522438 13.3628120422 153 154 152 2 0.222823748557 -0.217672469097 -0.950246427658
-2.47386598587 -1.61303818226 12.9954500198 4 13 22 2 0.165721128669 0.130884170473 -0.977448638769
0.851409316063 -0.984676420689 11.6277675629 2 5 10 2 -0.111680449899 0.0921545996595 -0.989461978487
-1.81466495991 0.476878076792 12.9494972229 98 98 98 2 0.115602246383 -0.036040934589 -0.992641512161
0.372842699289 -1.90616095066 12.557513237 30 36 45 2 -0.0628312951385 0.161124113587 -0.984932103432
0.372842699289 -1.90616095066 12.557513237 30 36 45 2 -0.0628312951385 0.161124113587 -0.984932103432
-0.139673620462 0.65567946434 11.7479028702 147 148 148 2 -0.0221291659526 -0.0563489794698 -0.998165864236
-0.872287273407 -0.259831726551 11.8568611145 112 115 116 2 0.0434850297934 0.0261762042797 -0.998711098623
-0.997440576553 -1.29259777069 12.7109851837 6 9 17 2 0.050491794344 0.109576164052 -0.992695141005
-3.30470013618 -0.959563493729 12.9430685043 148 148 146 2 0.230822165882 0.0786222783834 -0.969814242564
1.67545473576 -0.127172082663 12.8500032425 153 154 154 2 -0.166863707101 0.0129581492784 -0.985894816712
0.903565943241 2.08296942711 11.9680280685 52 53 47 2 -0.11155334567 -0.178031725513 -0.977681213781
0.450764536858 1.61285495758 11.7342319489 37 42 46 2 -0.0745960357121 -0.141479443312 -0.987126637558
0.59494972229 -0.869367897511 11.576259613 127 129 131 2 -0.0892180334636 0.0823545168309 -0.992601569645
0.59494972229 -0.869367897511 11.576259613 127 129 131 2 -0.0892180334636 0.0823545168309 -0.992601569645
0.162002071738 1.87055528164 11.7487640381 125 134 138 2 -0.0486731942829 -0.164021040006 -0.985255306301
-2.74732923508 -1.93594312668 13.2782402039 147 147 147 2 0.182104056234 0.152106964123 -0.971443042164
-2.99361848831 1.31961512566 11.8167676926 154 155 157 2 0.226482814616 -0.112109438114 -0.967541734795
-1.08832371235 -3.00382423401 12.3425931931 117 124 130 2 0.0582100771555 0.252066270543 -0.9659576503
0.271509796381 -0.625559508801 11.4639911652 2 3 8 2 -0.0606231132655 0.0609420080992 -0.99629860473
